# .PCD v0.7 - Point Cloud Data file format
VERSION 0.7
FIELDS x y z intensity
SIZE 4 4 4 4
TYPE F F F F
COUNT 1 1 1 1
WIDTH 1418
HEIGHT 1
VIEWPOINT 0 0 0 1 0 0 0
POINTS 1418
DATA ascii
-1.7492108 2.4681773 0.30118737 1
-2.0715175 1.9712356 0.33278504 2
-1.9001043 2.0338244 0.3568643 10
-2.4717407 1.8750002 0.261242 55
-1.6591107 2.5169125 0.30650428 1
0.32483163 1.0045208 0.90079433 58
2.024868 4.0800247 -0.010749059 3
-0.14416936 4.3668127 -0.0079496671 1
0.22356346 1.1499996 0.86025655 1
2.5168126 2.8594811 0.2095273 5
2.522362 2.9086115 0.19814692 10
1.7356322 2.8909431 0.31130996 11
1.8608617 2.640903 0.35499343 7
1.8458247 2.3994892 0.4124327 5
2.3544683 3.9229827 -0.0091930199 1
2.5495353 3.8006122 -0.0052607823 12
2.5107481 3.4809921 0.073366091 12
2.5093374 2.6159542 0.26180211 13
1.8319441 1.8145711 0.54183263 3
1.8397602 2.8992124 0.29697946 2
2.2398186 3.9991884 -0.014033513 1
2.2225034 4.0351381 -0.020790415 0
1.8667583 3.2458799 0.21056907 1
1.8441838 2.0355899 0.49318931 1
1.8419142 1.9058899 0.52114093 1
3.0695429 1.721755 0.30825242 41
4.7414694 2.7330542 -0.21247537 0
4.4340925 2.3115945 -0.084575132 0
4.8498602 2.5657096 -0.21437247 0
3.022893 1.7727494 0.31128398 16
5.0093956 1.1914554 -0.11522467 0
4.8554006 1.5989525 -0.10771032 0
2.7315414 1.7519706 0.37811992 48
4.5563064 2.0270352 -0.078165725 0
4.9190769 -2.3225646 -0.19966944 0
3.1004169 -1.4136814 0.3420119 1
2.5018711 -2.1517715 0.35506335 6
1.9899292 -1.6798229 0.54059964 1
1.8967289 -1.9561455 0.50163609 1
1.498266 -1.468164 0.66975063 1
4.6393986 -1.8342464 -0.076920703 1
5.0448475 -2.045903 -0.19844241 1
2.484175 -1.3566316 0.49219343 7
-2.1588347 -2.7068136 0.1800407 3
-0.98181003 -1.4382887 0.64566731 7
-2.2455814 -2.1787493 0.26116291 18
-2.1538408 -1.7813442 0.3461915 30
-2.2418287 -2.6089761 0.18353187 19
-2.3733032 -1.3452491 0.35567304 60
-2.3893924 -1.2718172 0.36030504 34
-0.75371569 -1.4831609 0.67553186 6
-2.4696057 3.4939806 0.13120072 32
-1.8989933 2.7627859 0.34626547 4
-1.9966311 2.1666455 0.43160591 2
-2.465488 2.5316255 0.29409167 12
-2.3382182 2.3019435 0.3514339 55
-2.0064664 2.3001435 0.40864268 24
-2.3503344 1.8636919 0.41126105 47
-2.4656925 4.1849246 0.0029703807 25
-0.2537412 5.0637879 -0.0079710055 1
0.20712326 1.1937544 0.89263773 2
2.6991274 4.5494523 -0.010071712 8
0.33178481 1.0055441 0.93782765 57
1.67796 3.1809914 0.37481913 7
2.504935 3.1452022 0.29108694 2
2.5076995 2.9275091 0.33158705 5
2.5187244 3.0736766 0.30280754 6
2.509064 3.4252739 0.2366495 2
2.5077279 3.554704 0.21145014 1
1.8389907 2.4443386 0.50960815 2
2.5127256 2.7318287 0.36669132 12
1.8561212 2.5092497 0.49478689 7
1.8277953 1.8868818 0.61667883 2
1.8317202 2.3222139 0.53434378 20
1.8444027 2.0797398 0.5789091 2
1.8425611 2.1385856 0.56810743 11
1.8103356 1.9472584 0.60810202 1
1.7596704 2.790529 0.44873956 24
1.8553042 2.8062644 0.43539229 49
5.3146667 3.3789508 -0.21154566 0
5.4223981 3.1998506 -0.20957322 0
3.0580871 1.7413342 0.42785516 23
3.0281324 1.801392 0.42600724 5
2.9919372 1.8713596 0.42369941 36
6.2977161 1.1492523 -0.22255345 0
5.6883202 -2.7146597 -0.20723446 0
3.0996308 -1.4145874 0.45722887 1
2.490808 -2.4993584 0.4113048 13
1.9957186 -1.9532988 0.58057934 1
1.9155656 -1.9664874 0.58990169 5
1.4908698 -1.460026 0.74174136 1
2.4644403 -1.3453149 0.59165066 7
1.2571253 -1.5230558 0.76027149 1
5.8742414 -2.1607425 -0.19390686 1
0.73674726 -1.4392794 0.82558829 22
-2.1621487 -2.6893752 0.31897011 20
-0.989739 -1.4357245 0.71714979 2
-2.2435944 -2.1908152 0.38496765 18
-2.2353528 -2.6003788 0.32200274 13
-2.1435506 -1.7849889 0.46115002 32
-2.3754456 -1.356855 0.46617588 52
-2.3802752 -1.2663202 0.47426471 36
-1.883152 2.6858628 0.48947337 3
-2.4639897 3.4128044 0.30765912 34
-2.4634452 3.0735569 0.35765895 44
-1.2657396 4.8388295 0.17670827 45
-2.1155362 2.7292154 0.45323542 25
-1.4309094 5.216197 0.096682951 74
-1.6957161 5.4365497 0.03863816 14
-2.3415587 2.3054647 0.47922078 56
-2.4539738 5.2010264 0.018371267 54
-1.9341526 2.6351695 0.49053916 43
-2.4645317 1.8720464 0.51109266 68
-0.21399868 5.1933413 0.15392916 34
0.22901636 1.1398076 0.9473297 2
2.7023652 3.9022841 0.2863777 4
1.5835867 3.198293 0.50444746 27
0.72133607 1.0034556 0.96146226 13
0.3492389 1.0030924 0.97499782 46
2.5102873 3.0609858 0.44332013 10
1.8857408 2.1991639 0.6491943 5
1.8472291 2.574229 0.5918833 22
2.0195849 2.9124143 0.51849473 37
1.8226558 2.4171486 0.62046933 2
-0.72127634 4.8956885 0.19473498 1
2.4936655 1.7564781 0.63222194 3
-0.45334882 5.2101068 0.14439408 116
1.8744437 2.8407063 0.54421824 23
-1.2301106 4.8442788 0.177909 40
-0.8917039 5.0883303 0.15057735 27
0.30080733 1.0007281 0.97530341 76
1.8148832 2.2780027 0.64412034 48
1.7793407 2.9515963 0.53338134 58
6.353579 3.8459454 -0.20895238 2
3.0516725 1.7628524 0.54456264 18
3.09761 1.8887181 0.52364326 12
6.7412 3.1271706 -0.20565756 3
2.728276 1.8780736 0.5822143 35
7.4964194 -0.69966745 -0.21736796 1
6.7134337 -3.2359009 -0.21014972 2
3.060715 -1.4074082 0.57784289 9
2.4864244 -2.6400406 0.51132792 1
1.5022416 -1.453544 0.8093285 3
2.4815927 -1.3567568 0.67958772 7
7.4030347 -1.6512656 -0.22970684 1
7.3602586 -1.4625247 -0.21374996 1
7.2799454 -1.9848442 -0.22302409 1
-2.142693 -2.6672432 0.45864639 24
-0.98000139 -1.424534 0.79130995 6
-2.1609745 -1.6551044 0.5841493 2
-2.2157474 -2.597492 0.45853022 18
-2.2010462 -2.1859128 0.51540607 23
-2.2714336 -1.4429903 0.58702445 11
-2.3768771 -1.2756156 0.58342087 60
-2.2210481 -1.6201975 0.57794833 3
-1.6990721 5.4504781 0.24529652 12
-1.5698001 5.2118568 0.28805467 52
-2.2774792 5.2136178 0.24220304 40
-2.3395174 2.3051627 0.60665822 66
-2.458504 5.2132292 0.22877823 96
-1.3912115 5.2237778 0.29584381 47
-2.2525365 5.4433661 0.2112634 74
-0.18667358 5.3040233 0.32495335 1
0.22101769 1.2314731 0.97394258 1
1.569198 3.158735 0.63467968 13
0.62700456 1.0110667 1.0036815 63
0.36016461 1.0011511 1.0113972 57
2.5119703 2.8079655 0.61051214 12
2.1982892 3.1200929 0.59718555 9
1.9438903 2.0909259 0.7544933 6
1.8145612 2.4587026 0.71767694 2
1.8570825 2.6946344 0.68207175 28
-1.3232281 5.2001557 0.30283406 24
-0.95823365 5.2152152 0.31686041 21
-1.1384071 4.8501534 0.36476681 1
2.4997981 1.7603382 0.73128217 3
-0.32772207 5.0971041 0.35477152 15
-0.72216791 4.9958553 0.35947302 71
1.7176387 2.1607711 0.76571274 30
-0.47170573 5.100327 0.35079101 66
0.29752806 1.0028522 1.0109861 72
1.7574546 2.1228609 0.76734042 33
7.8047147 4.8045244 -0.22502585 1
3.0755262 1.7770829 0.65678447 7
9.2532835 -0.7833938 -0.23389943 1
8.6508732 3.2621927 -0.23179992 1
3.0336192 1.8715168 0.65390086 33
9.1283655 1.0329344 -0.21848948 1
8.4931822 3.3991599 -0.21703263 1
8.1227055 4.1703544 -0.21700449 1
8.4720507 3.656817 -0.23021169 1
7.8844247 4.5647554 -0.21550961 1
8.0233269 4.3267174 -0.21528657 1
8.7479582 2.9675219 -0.22976418 1
8.2681007 -3.9933312 -0.22411723 1
3.0765419 -1.4047688 0.68626112 1
2.5397899 -2.7076337 0.62036824 1
1.5313472 -1.480315 0.87030625 1
2.4725266 -1.3521636 0.77260208 7
8.8142805 -2.7468641 -0.22829099 1
8.3811579 -3.8067694 -0.22707219 1
8.4800701 -3.5804596 -0.22629578 1
8.4877672 -3.3502951 -0.21314795 1
-0.99599153 -1.420717 0.85976583 7
-2.1777918 -2.6653697 0.58605212 15
-2.5098124 -1.8158087 0.63119215 71
-2.3674204 -1.2699306 0.69303983 72
-2.2600813 -2.6049001 0.58373153 4
-1.7047098 5.4705625 0.44985107 6
-1.6082746 5.2649803 0.47779301 23
-2.3535538 2.318737 0.72992802 66
-2.4496381 5.2443528 0.43649891 70
-2.2950346 5.2526069 0.44454125 25
-2.2338095 5.5070443 0.41977081 6
-2.3585653 1.8725142 0.76307786 43
-2.4897387 1.8772717 0.74922234 128
-0.15994072 5.2352452 0.52345365 2
0.23107891 1.216547 1.0199155 1
1.5783668 3.1793849 0.75265932 43
0.74418104 1.0606197 1.0309615 33
2.2616782 3.1721835 0.71717161 19
2.5356488 2.8366952 0.73247683 11
1.988762 2.1478169 0.83960855 10
1.8252454 2.533376 0.81131387 10
2.135627 3.108495 0.73159933 20
1.7395704 2.2953634 0.84165162 12
1.8652313 2.7733784 0.78334177 39
0.3675476 1.0038666 1.0467017 44
0.61416233 1.003584 1.0424579 77
-0.72875816 5.0343966 0.53645766 113
-0.35362327 5.1672878 0.52875686 8
-0.8963061 5.1207094 0.52132469 56
1.8280684 2.243521 0.84130418 43
-0.49362874 5.1326442 0.53024387 70
0.28547212 1.1344657 1.0304834 64
3.0667634 1.8372737 0.76989233 2
9.8605146 6.3573732 -0.22129901 1
2.5001259 1.7594783 0.83067006 2
9.925808 6.1192946 -0.21192952 1
10.424537 5.6734195 -0.23551114 1
11.413924 3.3532717 -0.23390968 1
11.824971 1.3863158 -0.23297997 1
11.080259 3.955519 -0.21909042 1
10.401088 5.3859558 -0.21604295 1
11.563068 2.8056359 -0.23342045 1
11.669485 2.3389373 -0.23324378 1
11.895929 -0.53510642 -0.23282905 1
11.86704 -0.97649074 -0.23286529 1
11.722888 2.0633066 -0.23315413 1
11.844762 -0.014092976 -0.2251205 1
10.80858 4.9239011 -0.23464878 1
10.270336 5.8615527 -0.23088224 1
11.812222 0.86494619 -0.22518964 1
11.502321 2.5473304 -0.21888621 1
10.895318 4.5675502 -0.22621818 1
10.631925 -5.1427622 -0.22691961 1
3.1282413 -1.4325594 0.78882402 3
2.5121558 -2.5824933 0.75863147 7
1.5940217 -1.5050468 0.93095338 2
2.4975336 -1.3691154 0.85900402 7
11.771763 -1.7725446 -0.23299856 1
11.427699 -3.3005188 -0.23350747 1
10.915457 -4.4801817 -0.22405048 1
11.516692 -2.8273041 -0.22850271 1
2.5517774 -1.7393277 0.82741076 1
11.774887 -1.5284388 -0.22909887 1
11.113357 -4.2152538 -0.23398228 1
11.497236 -2.5339363 -0.21781476 1
1.4937619 -1.4562215 0.94322562 16
11.23251 -3.6166284 -0.22259553 1
0.3339754 -1.7984982 0.94921094 11
0.4516668 -1.5279167 0.98205125 1
0.79929411 -1.4869943 0.9794277 2
0.21121071 -1.6789277 0.96315259 1
-0.083404042 -1.5180261 0.97609228 2
0.26612249 -1.6303661 0.96957505 1
0.487268 -1.5646399 0.97723311 2
0.79520732 -1.5898346 0.96748018 1
-2.5318484 -2.9560952 0.66004717 43
-1.0901272 -1.4787495 0.9157694 8
-2.5179284 -1.8194683 0.75022906 65
-0.20431364 -1.5658433 0.96591008 1
-0.94787973 -1.3972608 0.93524653 18
-2.4001441 -1.2724438 0.79549456 33
-2.458843 5.2192054 0.64762837 84
-2.2782564 5.2207069 0.65505874 38
-2.3451257 2.3121116 0.85616916 62
-2.2529638 5.4502225 0.63801116 66
-2.4784124 1.8703249 0.87008822 127
-0.12132526 5.2221789 0.71056515 1
0.23192896 1.2611076 1.0591274 1
2.7081084 3.9053321 0.77377856 23
1.5974191 3.1617031 0.87402195 42
0.75030267 1.0541303 1.0714504 32
2.5506942 3.5647206 0.80613464 1
1.8165375 2.537061 0.91516787 42
1.7484813 2.2238584 0.94156277 26
2.5147085 2.8089714 0.86222202 13
1.965872 2.1175547 0.93859446 7
2.2092199 3.1590617 0.85145068 26
0.30799004 1.0217845 1.0805178 72
2.0519118 3.0360816 0.86741716 40
-1.0309532 5.061214 0.70913994 76
-1.7053106 5.4742298 0.65560466 10
-1.5955088 5.232337 0.67896551 34
-0.4500562 5.2132645 0.70743436 73
1.8540921 2.8695767 0.88820165 38
-0.7279579 5.0335979 0.71815765 45
-0.93516511 5.2091923 0.69882864 52
14.812105 6.6831188 -0.2024159 1
3.1133995 1.8963423 0.87991488 1
2.4989626 1.7580345 0.92932886 3
15.041162 1.1057411 -0.097180322 15
14.967906 0.18642592 -0.087340668 13
14.849557 0.53727096 -0.077946618 22
14.932059 2.171098 -0.098245099 16
14.901238 -0.7251792 -0.083068803 16
14.769183 5.8287802 -0.16934665 1
14.868902 -2.2551887 -0.093895391 16
14.939898 1.4011227 -0.090721563 15
14.824455 2.4662924 -0.093190745 22
14.68179 4.3397121 -0.11890276 1
14.849914 1.8001912 -0.086862043 20
14.858849 3.2597389 -0.10953827 7
14.791125 3.6632977 -0.11209328 1
14.696399 5.1703629 -0.14295192 1
14.773465 -7.2144127 -0.21927352 1
3.0724852 -1.4046733 0.90501934 4
2.6745732 -3.44857 0.80908805 33
2.4734924 -3.0596268 0.84676421 2
2.4865866 -1.3628033 0.95046532 9
14.66192 -5.721642 -0.15707572 1
14.725354 -6.7562056 -0.19809242 1
-0.070899971 -2.3018548 0.96494544 1
-0.32091838 -2.3182516 0.95827788 1
0.2076935 -2.2538838 0.97235441 1
2.6667862 -3.9185836 0.77474606 5
-0.51147521 -3.985851 0.81228834 1
1.3972627 -1.801241 0.98868108 3
-0.13461465 -2.2856851 0.96519363 1
-0.18674386 -2.2580373 0.96650571 2
-1.0588448 -4.0531235 0.79295313 1
-0.49644887 -2.2613707 0.95800108 1
0.30591589 -4.1699877 0.8052088 1
-0.59294838 -3.9595199 0.81285709 1
-0.48735321 -4.0823798 0.80448419 2
0.34915841 -2.2154846 0.97623628 8
0.84146392 -1.5296195 1.0298117 1
1.1966833 -2.427196 0.9460212 1
2.4846916 -3.5561345 0.80983788 40
0.17642681 -4.1471791 0.80674809 1
0.076634876 -4.1182394 0.80868256 1
0.41814083 -1.6096073 1.0291486 1
-2.1884685 -4.0789075 0.74655592 1
-2.5197506 -3.8519554 0.74620533 6
-0.91317087 -1.694995 0.98400474 3
-0.78381985 -1.7380712 0.98752064 1
-0.75370389 -1.7990941 0.98443156 1
-0.3974719 -1.6614823 1.010089 23
-0.51059389 -2.2263255 0.96041852 2
-0.6590727 -2.1948724 0.9577443 1
-0.62138778 -2.211525 0.95780385 1
-2.4936452 -1.8031555 0.87223154 57
-2.3682406 -1.268429 0.90466517 61
-1.7135737 5.5014296 0.85904181 38
-1.5694387 5.2224913 0.87560272 71
-2.4749331 2.4592922 0.96990782 65
-2.4412069 5.2338538 0.85507852 90
-2.2768841 5.2218795 0.85983771 46
-2.3482177 1.8671528 0.99450755 40
-0.069399633 5.271369 0.89219278 1
0.25068411 1.1875087 1.1074618 3
0.74605715 1.0114411 1.1133722 26
1.857686 3.6965394 0.96276492 8
1.7953036 2.4604461 1.0222508 9
1.9330902 2.4355412 1.0197462 21
2.7139888 3.9123428 0.93364561 30
2.7100685 4.9250441 0.8870396 17
2.1582928 3.8140779 0.95119727 1
2.7088392 4.0295067 0.92850626 4
-0.13540041 5.1917152 0.89596361 15
2.5277383 3.4968154 0.9570176 1
2.5179338 3.2049272 0.97009218 11
0.66105545 1.0190542 1.11439 95
0.36824599 1.0119988 1.1169658 65
-0.037571136 4.2740426 0.94449466 5
-0.88962787 5.1022511 0.89300168 67
2.0175564 3.8586743 0.95191741 8
-0.46893209 5.1062469 0.89774442 68
-0.73318583 5.0658193 0.89691156 49
18.007 11.956008 0.079297826 9
3.0810616 1.8730072 0.99999809 5
24.343172 2.7990496 -0.059093311 11
23.667875 4.8872352 -0.042821243 5
23.940706 0.29250705 -0.030156331 11
18.835108 2.091506 0.22325967 14
18.930691 0.29210711 0.22449355 14
23.2248 4.8779001 -0.020698147 5
23.89546 4.3411474 -0.048628286 2
23.613363 2.7963719 -0.022243338 2
23.712519 -2.2304401 -0.023973064 11
22.788309 -2.3005602 0.022411985 2
20.793016 3.6957672 0.11252289 2
22.723019 5.835824 -0.007479744 11
23.788332 3.8994906 -0.039262131 8
20.217144 6.6062775 0.10308032 4
22.352648 7.1454954 -0.008716302 5
24.070923 3.1881096 -0.047910169 14
20.562523 5.1184063 0.10815422 7
20.874348 4.1526923 0.10395353 7
22.562269 -11.116053 -0.097297147 3
3.1297059 -1.4230227 1.0099814 1
21.943775 -10.618819 -0.05766578 5
22.535427 -10.717792 -0.086880162 9
22.991405 -8.6924706 -0.066004232 11
18.761034 -7.4372892 0.15770988 4
23.503689 -4.6842875 -0.032310441 5
22.737556 -9.1332293 -0.062520936 8
18.951094 -3.696317 0.20461522 12
23.262209 -4.7188368 -0.020651536 11
18.748976 -2.016731 0.22812848 17
22.837004 -4.7132583 0.0005569887 7
23.170097 -4.8662968 -0.017653065 11
21.664019 -8.0979643 0.0079957675 2
21.607332 -9.9059582 -0.026179271 5
22.16048 -8.1168833 -0.015926795 2
21.817633 -7.3175483 0.014501138 2
22.755253 -7.8998642 -0.040432647 8
22.962858 -6.6597843 -0.030502276 11
22.029909 -7.4744611 0.0016493035 2
0.31901857 -4.1023498 0.95506597 2
0.34536961 -1.7954963 1.0759561 1
1.4273522 -2.6079056 1.0235566 8
2.0528538 -4.0587454 0.94177306 16
0.84635121 -1.5110326 1.0872042 1
1.3213136 -2.5794375 1.0268437 51
2.5310853 -3.5793774 0.95340008 56
2.6683061 -3.4190919 0.95675248 6
2.4785929 -3.0694866 0.97717243 1
2.5196674 -3.8252478 0.94260603 31
2.6742938 -3.9036629 0.93520939 38
2.6299837 -4.0841446 0.92813051 67
0.39967912 -1.5944235 1.0865046 1
0.65110976 -1.7671604 1.0764357 1
2.4441345 -4.0102053 0.93589687 23
2.6671586 -3.6283143 0.94764853 39
0.82339215 -1.6065588 1.0827739 1
-0.53189242 -3.9385531 0.95738989 50
0.73940265 -1.7079401 1.0786666 1
0.5265308 -1.6242841 1.0846109 1
-0.39716959 -1.7230467 1.070811 8
-0.66199768 -2.2394664 1.0400509 1
-1.4332312 -4.0493641 0.93577498 24
-1.3633831 -4.0423269 0.93766391 23
-1.5477921 -4.041533 0.93350148 16
-0.90561718 -3.3727236 0.97981918 1
-1.0548096 -4.0360975 0.94421941 8
-1.1696832 -4.0480452 0.9414224 12
-1.2323557 -3.4260366 0.97020072 2
-2.4963174 -1.8033503 0.9897449 66
-2.4999478 -4.0554934 0.90636188 100
-2.3834922 -1.2628025 1.0087519 33
-1.7207398 5.5257297 1.0637617 14
-1.563401 5.2107406 1.0701236 54
-2.6498272 3.0878522 1.0903116 2
-2.4651144 2.8574538 1.0957375 55
-2.3446391 2.3146253 1.1039659 63
-2.2794569 5.2309546 1.0637281 34
-2.4519432 5.2138519 1.0623406 100
-2.5262158 4.4900289 1.0725008 28
-2.5137575 4.1749597 1.077239 7
-2.4811263 1.8747239 1.106518 100
-2.2541564 5.4611845 1.0603424 98
-2.4464083 4.6077261 1.0716115 23
-2.3428335 1.8785789 1.1086898 66
2.4476678 5.1737208 1.0756555 39
0.75381929 1.0399216 1.1510578 48
0.24652702 1.2528253 1.1479182 1
-0.0066763503 4.2698479 1.0946126 1
-0.1722669 5.2107472 1.0777185 42
2.5260918 3.4918506 1.1013985 1
0.34037125 1.0018203 1.1525036 74
0.65807283 1.0087633 1.1519902 98
2.6950519 3.8482878 1.094815 2
2.7143769 5.1558056 1.0745039 28
-0.4663018 5.2183123 1.0764887 134
-0.86673862 5.0917335 1.0767002 60
0.30840594 1.0295485 1.1519642 63
-0.75242156 5.0723448 1.077648 37
25.46188 16.987408 0.67967612 8
3.1228991 1.9002272 1.1154227 6
23.093807 15.161872 0.72807294 2
16.876335 9.35567 0.86405146 6
25.414467 14.42204 0.70408785 2
25.397312 13.6084 0.71126801 7
25.463442 16.494528 0.68443584 8
25.200117 2.7145357 0.77237052 12
25.165815 -0.052009284 0.77554989 14
18.945087 1.9660053 0.87251335 4
19.172604 0.029587632 0.87074631 8
25.175383 -1.9507291 0.77410305 12
25.23814 6.7617159 0.75852472 19
25.223595 4.1294265 0.76860857 12
20.867048 3.5541341 0.83842999 16
20.960464 5.4421515 0.82991636 11
21.439745 5.6474819 0.82165939 6
21.890778 3.653863 0.82212937 11
18.638533 0.28116518 0.87918711 15
21.186867 4.6650858 0.82965958 13
17.66646 -8.6759176 0.85906595 12
3.0829849 -1.4126523 1.1203847 9
17.164608 -8.3513775 0.86863792 16
19.315218 -6.3917365 0.85033393 6
25.181362 -8.6674643 0.749852 18
18.148743 -6.2842298 0.86836076 8
25.139639 -5.2048488 0.76664418 12
18.943171 -3.8369505 0.86763823 11
19.211647 -1.6151143 0.86895663 12
19.679211 -7.2022805 0.84020638 3
18.440636 -3.5360744 0.87647659 15
25.16814 -8.2661457 0.75230122 20
17.925295 -6.4795027 0.87052703 13
18.750179 -7.2953854 0.85330468 11
18.865541 -1.8399434 0.87407231 13
17.702614 -7.8753276 0.86455142 8
18.087385 -6.6803284 0.86691123 6
17.528938 -6.8811741 0.87385708 10
17.100315 -7.395052 0.87661523 15
19.873695 -7.1197596 0.83782244 7
0.20277697 -4.0792985 1.0986385 2
0.31483939 -1.6556484 1.1411043 1
1.4177305 -2.6134253 1.1223668 45
2.0571864 -4.0735025 1.0955819 61
0.9902122 -1.7354618 1.138676 1
2.4879456 -3.0854557 1.1077566 1
2.6776226 -3.4356377 1.1011505 9
2.5424266 -3.8066618 1.0967224 57
2.5710032 -3.5911319 1.0997297 34
0.6546545 -1.827638 1.1381509 1
0.83484781 -1.5316485 1.1426862 1
-0.51612347 -4.0615349 1.0963224 77
0.81656504 -1.6065606 1.1415073 2
0.50770003 -1.5620269 1.1428713 1
0.4361454 -1.6525356 1.1412947 1
2.5908835 -4.0848665 1.0921618 53
-0.68838185 -2.2331016 1.1255788 1
-0.52249247 -2.3017645 1.1258407 1
-1.0640064 -4.0575495 1.0929837 34
-1.1844937 -4.0375476 1.0924102 2
-1.5919411 -4.057838 1.0886642 1
-1.41812 -4.0488243 1.0903332 41
-1.2157845 -3.3551772 1.1031326 1
-0.89099544 -3.4019217 1.1050398 1
-2.5191257 -2.2509401 1.1021452 49
-2.3783951 -1.7134694 1.1097898 74
-2.5215485 -4.052784 1.0790714 61
-0.92860347 -3.9297936 1.096056 55
-2.3721211 -1.2677884 1.1136301 66
-1.3321887 -4.0827603 1.0905037 8
-2.6443682 3.7335343 1.2486004 1
-2.8429115 4.638083 1.2630348 2
-27.108046 34.657761 1.897801 10
-24.697674 34.973774 1.8806717 9
-25.287405 35.535027 1.8936961 10
-26.007807 35.752316 1.9030317 10
-2.4636352 2.8647108 1.2354288 60
-18.543316 19.600958 1.6149391 3
-18.417963 20.290991 1.6223819 7
-18.64893 19.84882 1.6191661 3
-18.88018 20.516497 1.6300286 3
-18.770576 20.257273 1.6255987 3
-26.559885 34.706104 1.8934251 10
-9.053565 10.970407 1.4070469 2
-26.49824 35.385757 1.902269 10
-26.598303 35.007393 1.8979311 10
-1.581957 5.2296262 1.2640953 58
-1.7008502 5.4948392 1.2689643 17
-2.285331 5.2169957 1.2676682 53
-2.4615419 2.4394674 1.2303098 61
8.1861429 13.060223 1.448074 2
2.4178457 5.1813788 1.2706568 44
0.74960512 1.0458992 1.1902841 41
0.25583303 1.1432265 1.1898558 1
2.5170381 3.4926662 1.245262 3
-0.016083632 4.2811484 1.2443395 8
3.0016661 4.6150851 1.2671523 4
-0.16887897 4.3102336 1.2448667 9
-0.28897321 5.1840453 1.2600533 16
-0.41013974 4.5773835 1.2496833 63
-0.51131612 5.0937381 1.2586937 45
2.5029709 1.7528883 1.2220639 7
0.65363926 1.0017681 1.1888429 100
0.3939732 1.0059991 1.1876671 70
2.7100077 5.1730895 1.2730006 85
2.7180145 4.6310759 1.2645774 26
-0.94423562 5.2150917 1.2616066 70
-0.36322844 4.9404445 1.2558928 88
21.797714 14.571491 1.6562641 6
3.0943031 1.8886482 1.2326933 15
16.914467 9.3473072 1.5281066 2
22.306459 14.58859 1.6646022 3
25.502214 14.415039 1.7155241 7
25.485683 13.606143 1.7083942 3
19.632669 12.433452 1.6007951 7
25.251045 2.9449358 1.6470567 6
25.213604 -1.905767 1.6446892 9
18.892056 2.1277306 1.5251824 2
25.237917 -0.16951762 1.643854 9
19.075483 -0.068682469 1.5265977 14
19.059612 -1.50016 1.5273701 10
25.595655 16.032732 1.731624 3
25.327831 6.646152 1.6605746 3
20.394354 5.2631707 1.5634292 4
25.313904 3.925426 1.650556 6
18.915209 -1.619233 1.5248071 14
21.724581 3.4379754 1.5817167 9
23.429379 15.108615 1.6877166 3
17.093164 -8.3492565 1.5233407 12
3.0766201 -1.4028167 1.2281258 4
17.091776 -8.2030306 1.5221837 12
25.229647 -7.3796496 1.6625237 6
25.226933 -5.3551221 1.6536818 6
18.869648 -3.9199119 1.5299139 8
18.875927 -5.5668292 1.5371829 4
18.52627 -3.7147944 1.5227734 14
18.455322 -5.5822382 1.5295767 16
17.546408 -8.1296387 1.5294932 2
16.728371 -7.6037526 1.5113735 12
17.093328 -7.3540068 1.5159557 8
18.00247 -3.0966096 1.5109432 8
2.4760358 -3.0789855 1.2389102 3
17.926771 -6.0307202 1.5224031 10
17.330547 -6.4909182 1.5144255 8
16.75028 -7.1352425 1.5083965 6
2.6704226 -3.4113326 1.245924 1
18.031349 -2.7241111 1.5104223 8
16.790009 -6.6793509 1.5060062 16
-0.27001369 -2.1756511 1.2085054 12
0.28182727 -4.0630589 1.2409298 53
0.31659904 -1.8016508 1.2014606 9
1.413469 -2.615124 1.2211409 28
2.0513198 -4.0780454 1.2500267 75
0.76743394 -2.656286 1.2177187 1
1.2908294 -2.5965173 1.2198659 50
0.58271778 -1.6732028 1.1999561 1
0.9255721 -1.6781636 1.2020304 1
0.85702825 -2.5829625 1.2168807 3
0.72015548 -1.8107811 1.2029672 1
-0.69050831 -3.9571836 1.2398195 48
-0.83695501 -3.9518564 1.2401829 48
2.6651673 -4.065836 1.255563 100
2.5696311 -3.8369606 1.251115 64
2.6101577 -3.5828798 1.2477527 66
2.6634164 -3.4499593 1.2464025 37
0.46377426 -1.5321909 1.1970787 1
0.79537821 -1.7186024 1.2018268 1
0.88153052 -1.6636192 1.2014723 1
-10.725584 -10.369801 1.4174606 2
-2.7017539 -2.9459112 1.2391186 3
-2.8981431 -3.4095454 1.2469875 1
-9.5875435 -10.399005 1.4054958 2
-10.13677 -10.378408 1.4110903 16
-2.7424614 -2.8448145 1.2383544 1
-2.7060382 -2.4242129 1.2331324 3
-0.67179614 -2.1284118 1.2095488 1
-0.68339914 -2.2332368 1.2112781 1
-1.6045794 -4.0674438 1.2456815 3
-1.4481729 -4.0248652 1.2441112 7
-1.0525644 -4.0488696 1.2426038 47
-0.9571957 -3.4159458 1.2317804 1
-1.2256941 -4.0433478 1.2432742 1
-0.87335175 -3.4464457 1.2319126 1
-1.236483 -3.5149717 1.2347994 1
-2.5158296 -1.8218445 1.2245878 72
-1.2507442 -3.385329 1.2328197 1
-2.376085 -1.2643814 1.2179544 31
-2.5238223 -4.0391293 1.2519513 63
-2.652149 3.745647 1.4162387 3
-27.219868 34.820927 3.4529798 6
-2.8388615 4.6351919 1.4592614 4
-24.721165 35.55106 3.4091582 5
-18.906952 19.990946 2.5933743 6
-2.4524748 2.8550494 1.3745971 57
-24.579168 35.088806 3.3853161 5
-19.519876 21.064888 2.6552975 7
-18.297955 26.842587 2.8525205 2
-9.4771175 10.54831 1.9092722 6
-26.96475 35.506203 3.4734633 6
-28.187916 37.638042 3.5991986 7
-24.545624 34.528381 3.3604684 5
-7.782465 9.7600164 1.8222457 3
-25.152519 34.867821 3.3925846 5
-7.9555645 9.5606613 1.8198847 5
-9.0082722 10.699244 1.8994335 11
-26.661293 35.366287 3.4584513 6
-7.9759722 10.063987 1.8406719 2
-1.5781044 5.2239261 1.4584031 66
7.9959874 12.630251 1.9560333 1
2.5090122 3.477494 1.3883421 4
2.3979909 5.1797318 1.4653807 56
0.74135321 1.0347812 1.2289224 37
-0.055055682 5.2284622 1.4440472 1
3.0359287 4.6336985 1.4552985 3
0.24662073 1.2853415 1.2373514 1
-0.118693 5.1271214 1.4389251 4
-0.016826276 4.3059182 1.3957678 1
-0.07767529 4.316597 1.3965094 4
-0.50194824 5.0464497 1.4366502 29
-0.31933504 4.3109994 1.3973861 4
-0.41044867 4.587842 1.41231 52
0.35251513 1.0024338 1.2225554 77
0.66072655 1.0107104 1.2261794 75
2.7102718 5.1695919 1.4718376 65
2.7136915 4.6192808 1.4460003 32
-0.94257933 5.2150068 1.4492481 69
19.063126 12.706405 2.3854008 15
19.327694 12.789294 2.3997359 22
3.0980084 1.8898944 1.3498384 15
25.575336 13.417246 2.7076404 18
17.283623 9.0859175 2.2044241 3
16.552567 8.7670774 2.1616232 4
25.348728 3.0363808 2.529974 12
25.288046 -0.36153024 2.5172834 16
16.031061 10.415042 2.1818094 18
25.287638 -1.7451144 2.5203466 20
19.176746 -1.3838875 2.1899228 28
19.07387 2.20839 2.1884313 25
19.27235 -0.20163509 2.192456 25
25.398539 6.8483691 2.57111 19
25.364067 3.8351157 2.5364714 12
21.22303 3.2753239 2.3110058 21
17.591022 11.28158 2.2775042 4
18.783987 -0.074045599 2.1660419 26
21.562803 5.7168374 2.3555562 5
20.40428 5.1837859 2.2879093 14
17.181396 -8.4010649 2.1833746 19
3.0815082 -1.4066108 1.3361682 3
25.303284 -7.50632 2.5759659 21
25.282543 -5.7375793 2.5510895 14
19.828835 -5.7865181 2.2666106 8
19.162815 -4.2610908 2.2115226 33
20.085957 -8.1100464 2.3203402 3
25.305248 -7.3171945 2.5732436 19
19.145901 -5.8024678 2.2315199 19
18.497017 -3.9142399 2.1724739 11
20.049711 -6.0021663 2.281302 13
18.88343 -5.7925043 2.2178144 16
18.866653 -7.530159 2.2477598 4
18.648926 -5.7860193 2.2056179 34
17.359457 -6.6457677 2.1548336 12
17.236567 -7.1444511 2.1585236 23
18.230116 -2.5059121 2.1453345 26
17.85128 -5.9437418 2.1672099 30
17.94742 -3.2839849 2.1368468 20
2.6650302 -3.4063399 1.3900894 4
0.82744604 -1.676152 1.262399 5
0.46128431 -1.6427251 1.2565897 1
1.565079 -4.0717282 1.3949701 26
0.53756797 -4.0872464 1.3848783 4
0.72181612 -4.0638037 1.3846438 40
0.42538273 -1.7251478 1.2607219 1
1.1933496 -3.9640684 1.3840215 89
0.80693096 -1.7400987 1.2652988 1
1.0111352 -3.0225511 1.3334734 1
-0.87984759 -3.3865259 1.3566793 1
-1.0557597 -4.0528975 1.392424 42
1.0340043 -2.6097212 1.3127757 5
1.4704742 -3.4544573 1.3624651 27
1.616577 -3.4838593 1.3666726 54
1.8454975 -4.0614328 1.399597 68
-1.028088 -3.4545479 1.3625189 1
2.6494188 -4.0750027 1.4193867 76
-0.49899089 -4.0803919 1.3870186 19
0.96457326 -3.9583745 1.38115 91
2.6680105 -3.8229609 1.4085249 42
-2.7626414 -2.8214443 1.3846939 1
-2.7050505 -2.9468231 1.3870897 3
-10.661383 -10.446689 1.9477241 1
-12.397943 -10.370904 2.0107296 1
-2.6737168 -2.3965425 1.3668212 4
-2.899775 -3.4086082 1.411182 3
-9.5853844 -10.388643 1.9073344 3
-11.217392 -10.38063 1.9658999 1
-10.069181 -10.37921 1.9239501 10
-0.61655504 -2.1243179 1.2904954 1
-1.4605913 -4.0485549 1.3993245 9
-1.5952867 -4.0437808 1.4018344 16
-1.3055117 -4.075027 1.3976845 11
-1.2333447 -3.3752837 1.3626137 1
-2.4980304 -1.8089498 1.3416498 74
-2.5018802 -1.2739291 1.328444 92
-2.5042174 -4.0408697 1.4243768 100
-2.5378666 -3.3871744 1.3982472 61
-31.231831 41.067551 5.6508193 12
-26.221634 36.608032 5.0838985 9
-19.329191 20.435207 3.6195066 3
-2.6407576 3.7323623 1.5827298 3
-18.243414 26.366613 3.961869 5
-17.932022 26.127491 3.9295924 5
-2.8234212 4.6486468 1.6565065 4
-2.4607091 2.8642671 1.5155717 51
-7.955945 10.042443 2.2959037 2
-10.524704 11.523677 2.5377929 1
-10.184912 11.241398 2.4999838 1
-8.0815344 9.2455969 2.2502275 6
-8.0868692 9.6464977 2.276706 2
-1.5714728 5.2077837 1.6520116 55
-1.7246773 5.5101576 1.6812235 23
-2.457968 2.4385729 1.4897867 70
-2.2817197 5.2153406 1.6761713 57
-2.4565794 5.2032285 1.6819978 52
-2.4418774 4.6206079 1.6370605 28
-2.4575453 1.8671014 1.4592946 112
2.3357403 5.1787586 1.6588453 17
0.73035765 1.0382605 1.2678686 63
-0.052309487 5.1998897 1.6254617 49
0.26238942 1.1753949 1.2728832 2
-0.10808391 5.2114606 1.6267685 15
3.1377237 4.6598883 1.6501796 1
2.5220561 3.4973474 1.5343653 3
-0.19840771 4.3168817 1.5495992 1
-0.45484382 4.2978115 1.5509399 3
-0.63944805 5.1085467 1.6233214 28
-0.2718153 5.213079 1.62808 35
-0.014494513 4.2835674 1.5453565 3
0.65881532 1.0043995 1.2628762 100
0.39072591 1.0005019 1.2577488 66
2.7142215 5.1764874 1.6721644 52
2.9052815 4.5533371 1.6315141 1
-0.9421683 5.2160654 1.6376603 60
2.7157097 4.6217728 1.6286004 24
22.774311 15.219364 3.5774856 3
3.0848329 1.8803118 1.4659063 13
23.450478 15.449225 3.6388543 3
22.912861 14.868578 3.5707378 3
18.224689 5.0197749 2.8239732 11
24.825504 9.6147842 3.5105741 3
24.723478 9.8707714 3.5104086 3
24.824108 7.1488676 3.4407234 3
19.340256 11.590344 3.1475439 2
14.078903 8.1825533 2.5911412 3
24.671329 -1.962713 3.3447998 3
18.587948 -1.5362999 2.8016694 3
12.434155 6.9821162 2.4113081 1
24.760225 3.0473797 3.3622675 3
18.841726 -0.27137351 2.8187759 7
24.698507 -0.44233808 3.3406277 3
19.981031 9.5039663 3.1104186 7
19.120592 2.2772293 2.8554182 11
18.622248 5.0625114 2.8591104 7
23.084072 14.642056 3.5727544 3
3.0726192 -1.4027499 1.4436427 6
17.087912 -8.358593 2.8348393 5
24.590305 -5.5831547 3.3862331 3
18.664347 -4.1518745 2.8435037 1
20.34347 -7.7345476 3.0787458 2
24.646454 -7.046279 3.4233053 3
20.36904 -7.5840511 3.0761683 4
19.707462 -5.680954 2.9671912 2
18.596889 -5.5636983 2.8693991 16
18.792519 -7.0610871 2.9284801 3
17.226116 -6.2632546 2.7731326 15
18.109879 -3.7693675 2.7880654 15
17.172842 -6.7125683 2.7828195 11
17.781601 -5.7173643 2.8041496 9
19.041479 -5.8457737 2.9145527 5
18.646448 -5.8594704 2.8813362 11
17.801702 -6.1354384 2.8176117 3
17.395359 -7.9974055 2.8457735 5
16.784618 -7.432744 2.7756007 16
2.6855264 -3.4378974 1.5382508 10
-0.40491641 -2.1039276 1.3639392 1
-0.95325834 -3.4352481 1.4889586 1
-1.0546075 -4.0465403 1.5421513 4
1.6567529 -3.4462142 1.4951493 18
1.9037776 -4.0470505 1.5523751 76
1.622447 -4.0617747 1.5449611 85
1.4562207 -3.4957952 1.4930922 42
0.96181041 -3.9468627 1.5207379 81
1.3962704 -3.9619825 1.530659 73
-0.49750322 -4.0683422 1.532045 52
1.5821886 -3.5056915 1.497648 67
-0.92709047 -3.9418507 1.5301476 36
-15.429572 -14.97096 3.0472949 2
-2.7661262 -2.8234165 1.531943 1
-2.7012498 -2.9418805 1.5350106 4
-12.321642 -10.370609 2.5816138 1
-2.7106512 -2.4249394 1.5057008 4
-2.5233562 -2.2602756 1.4842026 13
-2.9092026 -3.4170768 1.5770515 3
-9.5706825 -10.368781 2.4090075 3
-11.760387 -10.422103 2.5478082 1
-11.249701 -10.405232 2.5140963 1
-9.9821177 -10.360002 2.4329393 5
-0.6286099 -2.0336463 1.3653296 3
-0.50616789 -2.1727946 1.3724972 1
-1.0796076 -3.441334 1.4932923 1
-1.5057337 -3.8537529 1.5407417 15
-1.1927457 -3.3795946 1.4920675 1
-1.9492443 -4.0360107 1.5721222 25
-2.0706158 -3.8620653 1.5642583 36
-2.5050623 -1.8126243 1.4601672 68
-2.3627653 -1.2677604 1.4263886 67
-24.145115 35.299572 6.4046149 4
-2.8822362 4.6678958 1.8607297 0
-10.200542 10.878199 3.0122318 8
-2.684015 3.7365611 1.7547899 1
-8.1759529 11.820178 2.944464 7
-2.4594033 2.8647022 1.65669 37
-8.3116541 10.405747 2.8170481 7
-7.554492 10.052581 2.7261112 7
-7.6562533 9.6853991 2.6986601 7
-9.4017725 10.194746 2.8850501 5
-7.9657297 9.9187136 2.7444797 6
-8.3290815 10.279878 2.8065426 8
-6.895493 9.5478392 2.6286857 4
-8.4799538 11.893189 2.9732337 8
-8.3685608 11.661829 2.9424586 4
-9.9472599 11.063667 3.0077512 10
-8.2117109 9.5910063 2.7333755 4
-7.3404436 10.209407 2.7257128 7
-8.0240622 9.8514147 2.7426834 1
-9.2283697 10.660776 2.9128551 4
8.1201363 12.822486 3.0241446 0
2.5266163 3.5022836 1.6808374 1
2.2790425 5.1912284 1.8537124 33
0.72060299 1.0439301 1.3073248 46
0.0030167061 5.2144098 1.8108957 1
0.26497367 1.2050339 1.3180617 1
3.0372984 4.6314974 1.8327343 2
-0.20052344 4.3446059 1.7065173 1
-0.37714118 4.3031931 1.7042909 1
-0.6229564 4.2940369 1.7085361 2
-0.49399555 5.1168485 1.8049986 3
-0.81626529 5.078721 1.8074182 10
0.39810449 1.0043238 1.2936573 58
-1.6766982 5.4415865 1.8789375 73
-1.5786618 5.2322636 1.850822 54
0.63127697 1.0005913 1.2986546 100
-0.25351012 5.2198339 1.813905 63
-0.3617869 5.2065482 1.8137352 66
2.7136261 5.1711278 1.8726755 39
2.7119424 4.6110764 1.8107748 25
29.217512 19.290037 5.4803958 2
30.905689 12.237038 5.2618771 5
29.636217 11.966981 5.1029215 14
30.11866 19.303261 5.5751634 17
28.09634 17.725449 5.258327 5
3.0916147 1.8836628 1.5845062 11
29.291649 18.911198 5.4624839 11
13.616961 8.7412882 3.1435182 2
12.252032 7.5512347 2.921303 22
26.557119 7.8343678 4.5721822 3
21.418772 12.448131 4.2098651 24
11.22167 6.7396851 2.7595649 1
20.367887 11.181314 4.0188556 10
12.404829 6.9011931 2.896451 8
20.164549 11.52635 4.0177979 15
20.570896 11.387462 4.0532937 33
21.388584 6.9323425 3.9252441 2
16.172495 2.8734179 3.1717823 27
15.275516 5.8601794 3.1644626 4
15.554911 5.9085217 3.1990237 2
17.489603 -8.5669956 3.5521252 14
3.0778239 -1.4067097 1.5531098 15
17.269249 -8.3097286 3.5135067 22
26.379427 -5.909143 4.4910207 1
26.415796 -7.5693398 4.5464401 3
18.540569 -4.067297 3.4898233 8
19.119244 -5.5159044 3.6041005 0
18.795216 -5.5610852 3.5670316 8
18.160877 -3.7868781 3.4363301 29
17.691578 -6.7168765 3.4831824 15
17.591341 -2.7957408 3.3442569 10
18.296137 -2.3972158 3.4238393 7
16.878725 -6.4688554 3.3778243 22
17.047672 -6.4007101 3.3944185 9
18.298437 -3.103734 3.4372633 21
16.781481 -7.5079575 3.4164474 23
17.667961 -2.5602627 3.349247 27
17.59514 -6.5413494 3.4642594 10
17.933956 -3.4187164 3.3996489 30
18.037596 -5.6717954 3.4810233 23
-0.35195589 -2.0881536 1.4387864 2
-0.9301272 -3.9458792 1.6767808 3
1.6860256 -3.4543362 1.627744 33
1.9442135 -4.0715857 1.7103022 70
1.4194559 -3.509881 1.6229392 55
1.5638864 -4.0261817 1.6889862 65
0.9607178 -3.9502671 1.662201 61
1.3933425 -3.9574251 1.6748238 62
-0.51759464 -3.9472237 1.6645105 13
2.6576452 -4.0622716 1.7484707 55
-10.227333 -9.9523735 2.9351091 1
-2.7152536 -2.9738576 1.6880944 1
-2.9165487 -3.422147 1.7443349 2
-9.573103 -10.36323 2.914696 15
-9.9193182 -10.288928 2.9373059 6
-2.7377408 -2.8348327 1.6783066 2
-2.6477501 -2.3729541 1.633103 4
-0.36448795 -2.0546763 1.4353536 1
-1.0789081 -4.065763 1.6962925 8
-0.51394504 -2.0815766 1.4446253 1
-1.0078439 -3.4319489 1.6203445 1
-1.0912939 -3.3981822 1.6202128 1
-0.92610651 -3.4331684 1.6170605 1
-1.2519981 -3.3789966 1.6258097 1
-1.4837661 -3.8381922 1.6885836 8
-1.9611249 -4.0532584 1.7382923 7
-2.5055258 -1.8114046 1.578961 68
-2.5101311 -4.0440035 1.7725283 72
-2.5210989 -3.3871303 1.7093693 47
-2.5001066 -1.2711909 1.5467849 102
-9.9411745 10.691331 3.5017302 1
-2.651443 3.7504804 1.9242572 2
-2.4546137 2.8615613 1.7981853 31
-2.8595929 4.6380334 2.0565686 0
-9.217701 10.008162 3.3455069 4
-7.6748066 9.7139549 3.1508284 2
-7.5959697 11.441679 3.3617904 2
-8.048667 12.005214 3.4752655 4
-8.0702353 10.716631 3.3131919 2
-6.84796 8.6492586 2.9387717 2
-8.5816336 9.4731464 3.2157373 9
-7.2178125 9.5572023 3.0867853 2
-7.7561798 11.411453 3.3721771 5
-8.1576338 11.889612 3.4700909 2
-8.5113831 9.798439 3.2461894 2
-7.0977845 8.2903395 2.9211791 1
-7.7073975 10.626983 3.2674589 4
-6.6445279 8.1723289 2.8605709 3
-8.1443939 11.368629 3.4022298 8
-6.9948163 8.4652424 2.931349 2
8.6867342 13.746134 3.7308443 1
2.5623887 3.614239 1.8460958 1
2.2435296 5.1964369 2.0498662 29
0.71309626 1.0450706 1.3467208 62
3.0373304 4.6283584 2.0232792 2
0.0052842158 5.2028069 1.9950407 9
0.27005205 1.1954418 1.3594754 6
-0.76565212 4.3090057 1.872455 2
-1.0545981 5.2136216 2.0221598 55
-0.54586065 4.3066869 1.8646656 2
-0.68844539 5.096127 1.9914504 1
2.7141998 5.1683164 2.0750098 30
0.62184459 1.0062449 1.3362536 99
2.7088614 4.6017261 1.9939799 37
-0.4527424 5.2176113 2.0043328 70
29.402357 11.978929 6.1962843 3
28.221663 17.249748 6.4083238 4
14.726362 9.7480373 3.946279 1
36.3465 4.6019435 6.978251 5
22.936075 9.2221155 5.0726843 4
20.220287 8.9277048 4.6544991 10
3.1095777 1.8946379 1.706825 7
19.135618 -0.28881794 4.1786752 9
32.083477 -0.59858733 6.2508121 8
29.616964 -2.5883136 5.8734136 6
20.529621 12.297903 4.9474483 20
19.036306 1.989464 4.1790981 16
13.342275 5.5719705 3.4323368 13
20.581348 4.3235717 4.4818311 9
20.47049 8.5419598 4.6667891 4
39.644306 -1.6891512 7.4653783 6
28.854397 3.1345663 5.7604036 9
19.033619 6.0093551 4.3110423 8
12.486861 7.2818666 3.4334612 2
37.665337 -2.3819273 7.1550465 12
16.793898 -8.227273 4.1113362 9
3.0862069 -1.400185 1.6636801 5
29.985432 -6.6351342 6.0305099 14
18.983799 -4.1050467 4.2248201 11
28.06204 -7.7440038 5.774714 21
18.47542 -1.7249186 4.0856843 12
19.145472 -5.3247089 4.2970591 13
28.353552 -7.720046 5.8186603 9
18.567728 -3.8801599 4.1522021 13
18.273251 -3.6867397 4.0997992 10
29.264843 -6.8942122 5.9273887 19
28.514959 -7.447824 5.8323612 6
18.307394 -6.1170368 4.2062783 11
18.043865 -5.3418107 4.1285701 17
18.435318 -3.1959317 4.1106815 9
17.759836 -5.7243543 4.103415 12
17.27787 -7.4614205 4.1299138 14
28.998747 -6.9366698 5.8875504 21
17.384285 -6.1303248 4.0674796 16
16.90943 -7.0244703 4.0482926 18
1.6873524 -3.4618096 1.7610182 52
1.9419304 -4.0705843 1.8659288 51
1.5428777 -4.0645723 1.843714 65
1.4031237 -3.5497072 1.7590092 53
2.6681242 -4.0843463 1.9190059 65
-0.51381016 -4.0591235 1.8254664 45
0.94987273 -4.0760298 1.8240108 85
-0.92856127 -3.9355311 1.8226223 12
1.393186 -3.9632275 1.821576 66
-33.474346 -35.0938 8.83424 19
-2.6987743 -2.9554832 1.8357787 2
-2.9089007 -3.4114273 1.9102339 3
-33.71188 -33.654816 8.6980524 9
-33.304996 -34.674988 8.7681694 9
-33.707481 -34.845703 8.8313665 9
-33.676655 -34.104538 8.744421 9
-32.936619 -33.819672 8.6310673 18
-19.03075 -16.88644 5.2084913 2
-2.730387 -2.786521 1.8210207 1
-2.7045786 -2.4336448 1.7816324 2
-0.59540683 -1.8594294 1.4977188 1
-0.5700081 -1.8718886 1.497759 1
-0.45147336 -2.1363442 1.5292375 1
-1.4908245 -3.8491232 1.8417614 10
-1.6875873 -3.9059947 1.8633543 1
-1.0975919 -4.0683951 1.8508308 7
-1.5600628 -3.8552177 1.8472843 1
-0.91480464 -3.4351349 1.7469194 1
-1.2267488 -3.4141815 1.7620726 1
-2.64375 3.7418156 2.0944893 2
-8.2139997 12.245378 4.0585346 1
-2.8461912 4.6198344 2.2548149 1
-7.1186719 9.5056591 3.5054381 3
-2.4413452 2.8487072 1.938362 10
-7.9016857 8.7529469 3.4923935 2
-6.4807105 8.2091141 3.2324643 6
-5.6077447 6.1405754 2.8209667 7
-7.0599332 9.7738714 3.53987 2
-7.9579735 10.881981 3.8154922 1
-7.9631557 11.047915 3.8418124 4
-6.8366709 7.8896642 3.2303855 2
-2.3145413 2.2851977 1.8454579 146
-6.6881537 8.1131535 3.2439706 3
-2.4512022 5.2022595 2.3122842 48
-2.4547243 4.6131005 2.2130699 34
-2.6775281 4.5770898 2.2298939 2
-2.4385254 1.8575102 1.8139791 37
8.8108063 14.062221 4.3752627 1
0.093365319 5.2620516 2.1933978 0
2.1577523 5.1806827 2.2405276 9
0.68619567 1.014047 1.3792791 50
0.28450805 1.1533941 1.3942918 5
2.5191209 3.5155692 1.9781941 1
3.0120566 4.6207385 2.212496 1
-0.57394791 4.2974334 2.0221679 1
0.048369344 4.2882323 2.0048277 1
-0.94038624 4.3080773 2.0410547 2
-1.2427402 5.1972413 2.2229753 18
-0.84821898 5.0731945 2.1804745 1
-0.7125755 4.2901206 2.0265298 1
-0.048095856 5.1927223 2.1813469 10
-0.75704116 4.5379238 2.0753019 0
0.43066612 1.0082945 1.3670478 66
-0.68775386 5.0958376 2.1784363 45
2.6960828 5.1747847 2.2795348 103
2.7046976 4.5922623 2.1784315 33
-0.44964904 5.2012639 2.1910198 55
28.266207 17.003246 7.5716619 3
27.752502 13.354371 7.1427541 6
16.520826 10.959996 4.9961157 4
20.659557 11.70669 5.7624021 1
3.0975423 1.88585 1.824962 4
40.67313 -1.7405014 9.0844221 5
20.605022 9.7858496 5.5784168 1
31.33663 -0.15684812 7.2471185 3
39.938995 -1.9790678 8.9428396 5
18.944813 -0.029164469 4.8181167 4
30.930227 -2.6022666 7.1889062 9
11.76805 6.7948146 3.7740462 3
31.973936 -2.579792 7.3924208 6
19.824543 9.5774956 5.4230208 1
17.719231 7.4435339 4.8744259 3
28.646151 3.3071375 6.7570214 5
11.846225 6.7356243 3.7814209 2
32.554108 -2.5138631 7.5047631 3
19.212763 2.1384637 4.8940535 10
12.234797 5.5923591 3.7454195 14
17.445137 -8.4824715 4.9105768 9
3.0846374 -1.4000795 1.7746358 7
33.50774 -7.1868663 7.8223367 3
18.609411 -3.7593582 4.8268256 10
18.102856 -5.502377 4.8149986 3
29.886026 -6.1865396 7.0873561 9
28.543835 -8.6221647 6.9502053 6
18.97648 -1.7102656 4.8395715 13
18.438959 -1.7247257 4.7349272 9
28.931955 -8.4142656 7.011488 3
16.942665 -8.0177679 4.7823172 10
30.365887 -6.6160903 7.1968794 3
18.884331 -5.9544506 4.9875817 10
17.801653 -6.6308374 4.8305769 4
17.912363 -2.9836545 4.6646714 11
17.50769 -6.110786 4.7415686 12
29.508589 -7.0658092 7.0528173 15
30.161175 -7.1136937 7.1793952 6
28.868467 -7.5469971 6.9541273 12
18.408066 -2.8086495 4.755127 4
1.7767752 -3.6551676 1.9363426 22
1.5917541 -3.4671292 1.8891091 42
1.8385122 -4.0582438 2.0139165 64
1.4870361 -3.4785974 1.8843654 48
1.6454653 -4.0505543 1.9998748 66
1.4532816 -4.0773897 1.9938493 56
2.6699188 -4.0566587 2.0839133 68
-0.51446337 -3.9206254 1.9483963 56
1.9874489 -4.0634532 2.025599 61
0.95868486 -4.045074 1.9667403 96
-0.92953128 -3.9354622 1.971405 5
1.5776408 -3.7959864 1.9486263 57
-34.098911 -35.231205 10.690315 8
-32.974552 -34.80233 10.480275 15
-2.6935773 -2.9491508 1.9865507 3
-2.8367922 -3.4047906 2.0691464 6
-0.35166949 -1.8632381 1.5547794 1
-0.47333348 -1.8139467 1.5545874 1
-1.3421071 -3.8385334 1.9814405 1
-1.2661421 -3.498317 1.9151512 1
-1.4596608 -3.8154907 1.9865981 30
-1.0294154 -4.0514627 1.9987272 7
-1.1886212 -4.0511212 2.0087807 6
-2.4964609 -2.2344949 1.8662541 41
-1.9370105 -4.0376234 2.0667562 13
-1.7645304 -3.9506137 2.0361142 4
-2.3640046 -1.7056669 1.7859297 55
-2.5007133 -4.025332 2.1223502 33
-1.3181592 -4.0107341 2.0104847 2
-2.499156 -3.3807983 2.022737 39
-2.4852247 -1.2744092 1.7666495 92
-1.6012967 -3.8382919 2.0024042 12
-2.6631739 3.7685878 2.2764769 5
-2.8622718 4.6462073 2.466455 1
-7.4351277 9.1710072 3.9317126 1
-7.4974556 11.056579 4.2847495 5
-7.0288634 8.8122692 3.8086345 6
-7.9075308 11.302002 4.3853283 1
-6.8372068 8.0067034 3.639339 6
-7.8651648 10.464473 4.2252469 1
-8.3707409 11.514094 4.4876246 2
-2.4585829 2.8482218 2.0860584 48
-5.1781731 5.9400759 3.0314684 3
-5.0298424 6.1571984 3.0460939 3
-7.0894785 9.4031744 3.9232523 1
-2.4665823 2.4514148 2.0244174 59
-2.4519675 4.6116667 2.4090629 58
-2.4475367 5.199142 2.5264821 60
-2.3353755 1.8579131 1.9162091 46
-2.458081 1.857814 1.9394113 125
-2.6829033 4.588275 2.4325454 4
1.9736905 5.2258368 2.4371455 6
0.33110747 5.2187519 2.3747292 5
-0.97594386 4.3218565 2.2102802 1
-1.4641241 5.2105012 2.4393957 63
2.5319734 3.4781299 2.1235762 6
-1.0297452 5.2055717 2.4099343 56
2.9049327 4.2280769 2.316705 0
2.7117186 4.6024981 2.3699322 44
-0.13699198 5.1938019 2.3730948 60
2.7011392 5.181788 2.4891279 117
-0.46960163 5.1017299 2.3608768 71
2.8958988 4.5986328 2.3895671 14
-0.70339018 5.0893388 2.3672585 56
27.969528 15.642685 8.5469418 15
27.760984 15.912681 8.5358114 10
20.756926 9.6758022 6.421196 6
16.634155 10.946429 5.7299433 1
3.1049333 1.8896055 1.9490466 6
19.014811 -1.5955189 5.5296841 1
19.250298 -0.036236085 5.5687137 12
31.921932 -0.38042605 8.515687 5
31.825726 -2.4682014 8.5151291 30
18.609388 -3.8327851 5.5115471 21
30.392815 -6.6334085 8.326704 8
32.141422 -2.2695663 8.5849056 5
18.965893 0.032622602 5.5025802 24
16.368004 10.533695 5.6256065 10
13.183215 8.6943321 4.773026 1
28.482784 3.3779685 7.7620206 6
32.861156 -1.9843756 8.7475443 17
21.003418 5.2286444 6.1265383 12
19.100172 2.1856117 5.5630331 14
20.949413 5.4453998 6.1268988 18
17.351246 -8.4438696 5.5843501 22
3.0862019 -1.4021722 1.8878981 9
29.064081 -9.0180721 8.1698999 22
18.989218 -5.9238496 5.7200413 15
35.103348 -8.6916437 9.5020914 8
18.506615 -5.8405528 5.6072564 15
28.93568 -7.5758858 8.048645 20
18.662638 -7.0387402 5.7334986 7
29.487818 -7.6132884 8.1750355 22
30.060381 -7.3208346 8.2875042 4
30.119955 -7.5565324 8.314147 12
17.199846 -6.8138113 5.397819 14
28.635431 -8.2416525 8.022542 22
2.6793218 -3.413533 2.1302478 7
18.111208 -6.2699976 5.5517564 14
2.5188348 -3.1074593 2.0508068 1
17.95565 -6.0770931 5.5029182 21
17.060326 -7.4468627 5.4250569 14
17.325148 -7.9917765 5.5334611 15
17.833115 -6.5838089 5.5157833 12
1.5404108 -3.4419539 2.0141847 36
1.7926692 -4.0698638 2.1707101 53
1.6941125 -4.0607758 2.1611071 54
-1.0699785 -4.0723042 2.1621654 0
0.96957415 -3.9436207 2.0933814 63
-0.51844782 -3.9313433 2.0973427 49
1.4047834 -3.9612038 2.1192596 56
-1.1107007 -3.0147448 1.9393779 1
-2.903753 -3.4018734 2.2488027 5
-2.5500448 -2.2905593 2.0153856 9
-1.6398782 -4.0470142 2.2062602 54
-1.5253098 -3.9871714 2.1825941 38
-2.7311325 -2.8419626 2.129838 0
-1.3373336 -3.8600712 2.1383462 7
-2.3745003 -1.7108641 1.9049734 57
-2.4942865 -4.042716 2.3043468 114
-2.5103264 -1.272554 1.8845055 76
-2.5028303 -3.4065578 2.1886954 46
-2.7345829 -3.3623192 2.2157745 7
-2.365205 -1.2754881 1.8545899 59
-7.1974554 9.1487036 4.3321466 2
-6.4375916 8.1672945 4.0010362 2
-6.7582951 8.0895205 4.0403924 4
-2.6922011 3.7266955 2.4509873 1
-5.5685539 6.1075926 3.4356289 1
-2.4534009 2.8646152 2.2360423 11
-4.8508563 6.0806565 3.3021705 5
-1.687897 5.2095499 2.6637304 61
-1.320731 4.3529291 2.4148228 1
-4.9631805 5.9573145 3.2968202 7
-5.2593603 5.9934263 3.3569181 10
-2.3265805 2.2984846 2.1073611 137
-2.454766 5.2163997 2.7500072 59
-2.4542732 1.8706299 2.064723 36
-2.6373513 3.9895172 2.4976554 2
-2.462321 4.2232866 2.5222547 11
1.5392708 5.189209 2.5994353 32
0.56685048 1.0205203 1.4509065 25
0.37712634 1.0635226 1.4552664 2
0.51297671 5.1645212 2.5548601 15
3.7494912 5.6126952 2.9362569 4
2.5361209 3.5381777 2.2904515 1
-0.27557611 4.3724117 2.351759 1
-1.0626335 4.3409452 2.3893464 1
-1.2779421 5.0713081 2.592943 1
-0.37325811 5.2072854 2.576761 13
-0.48710036 5.1065059 2.5543261 58
3.0393267 4.6240954 2.6100848 4
-1.2433664 4.3280869 2.4014862 1
2.6957362 5.1659265 2.6959798 105
-0.95488077 5.2184086 2.6079412 58
2.7181311 4.6115432 2.5650637 39
13.725148 2.7990501 4.8584442 20
20.723446 5.2301917 6.8446937 15
12.426034 8.1764631 5.1016541 13
3.1037152 1.887494 2.0729332 10
29.832001 3.1123815 9.1677103 7
20.625322 4.6086893 6.7798476 10
19.316759 1.9392757 6.3150787 3
20.222403 9.4146948 7.099534 9
21.262325 3.6958754 6.8999233 1
14.416547 7.3945055 5.4557552 7
29.820526 5.1010261 9.2380495 8
31.917603 5.1236153 9.7967691 3
16.61812 6.6954513 5.9152665 5
20.251877 9.5994864 7.128047 11
16.187508 10.020164 6.2219996 6
20.699598 4.479938 6.791872 13
11.802268 5.3337116 4.5784354 15
18.855043 10.057412 6.8483891 1
18.964584 1.7718956 6.2161775 11
14.023787 7.3722649 5.359375 1
17.755701 -8.7286491 6.4210324 4
3.0496337 -1.3848332 1.9916463 6
32.159836 -2.9423511 9.7879972 6
31.997757 0.15498126 9.707963 3
19.051455 -1.7964411 6.2401986 15
17.192823 -8.3731222 6.2425909 8
18.610983 -3.7068977 6.1981349 8
19.51524 0.16088137 6.3423438 1
30.221069 -6.1702523 9.3978252 11
29.285831 -8.5413389 9.3073711 5
19.109161 -5.6104851 6.4525995 12
19.062733 0.22249576 6.2205048 18
31.70845 0.044003416 9.6298656 3
29.126581 -8.2870874 9.2470694 11
31.441481 -0.17907599 9.5580158 2
30.405785 -6.5375838 9.4669685 8
18.89266 -7.9620528 6.6127758 2
31.570227 -7.3584094 9.8218441 6
32.340805 -2.2951503 9.8224325 9
32.321907 -0.7316438 9.7975245 3
1.5368742 -2.9342101 2.0219135 4
1.5185192 -3.3464372 2.1233504 5
1.9426333 -4.0846872 2.3492045 56
2.0517225 -4.0672274 2.3561049 57
1.8406489 -4.0740643 2.336621 54
1.6966035 -4.0736761 2.3234539 54
2.5144157 -3.1503251 2.2004857 1
2.6838107 -3.4487152 2.2923799 33
1.3994284 -3.9477551 2.267597 57
-0.49036723 -4.067441 2.2806785 84
0.96706986 -3.9382682 2.2400007 58
2.6686935 -4.0620184 2.4295433 70
-1.0681055 -3.0306051 2.0623417 5
-1.0261844 -3.3268597 2.1307421 3
-1.5881321 -4.0437298 2.3664351 47
-1.4817179 -4.0375366 2.3531437 33
-2.9197924 -3.4160504 2.4285183 5
-2.7833781 -2.8489912 2.2962053 1
-2.5396857 -2.2805223 2.1480138 9
-1.2385901 -4.0470734 2.3307495 54
-1.3518653 -4.0431824 2.3409243 38
-2.5009708 -1.8170561 2.0673137 54
-1.0196723 -4.0561285 2.3134937 56
-2.4970047 -3.3968356 2.349983 39
-2.4903047 -4.0336108 2.4845927 96
-2.3746145 -1.2677351 1.9665611 40
-2.518043 -1.2509303 1.9994644 66
