# .PCD v0.7 - Point Cloud Data file format
VERSION 0.7
FIELDS x y z intensity
SIZE 4 4 4 4
TYPE F F F F
COUNT 1 1 1 1
WIDTH 1415
HEIGHT 1
VIEWPOINT 0 0 0 1 0 0 0
POINTS 1415
DATA ascii
2.114218 2.3281105 0.38749132 1
1.6906321 2.3241537 0.45101348 1
2.7890391 2.0364683 0.31919351 2
2.6073539 2.0945632 0.34530655 3
2.3194208 2.1162293 0.39558253 1
5.0938501 -0.53718114 -0.10573895 0
5.1108389 -0.35576808 -0.10571606 0
4.6082902 1.9007963 -0.076528624 2
3.5451958 1.9705323 0.16560845 2
4.1863723 1.9599032 0.018053217 1
3.970933 1.9792042 0.066372558 1
5.0382576 0.66767395 -0.095498279 0
5.0826559 -0.088699691 -0.094895437 0
5.0156746 0.30348277 -0.07947953 0
3.1244786 2.049459 0.24673294 3
3.0607483 -3.6810758 -0.052962139 1
3.0073085 -3.6890793 -0.04631646 1
3.2642357 -3.578922 -0.064550355 0
1.499759 -1.4347504 0.67648149 3
2.6533937 -3.9660103 -0.057219461 0
1.4113364 -1.7163382 0.62872565 24
2.5915375 -3.6242223 0.029639764 9
1.4775389 -1.9719989 0.56102425 1
1.4308138 -2.216244 0.50919199 1
1.4501454 -1.4857874 0.67381644 3
1.4892123 -1.5723124 0.64903295 12
1.4873601 -1.6165966 0.63971341 2
1.4957042 -2.1192448 0.5243035 36
1.4850295 -2.2082074 0.50461823 43
4.4402418 -2.0531259 -0.053417519 6
4.9043932 -1.2775459 -0.09411557 0
1.4456863 -1.6919769 0.62929672 3
3.9691308 -2.8322268 -0.058800057 0
-0.18995821 -4.9622998 -0.16778012 5
0.21652617 -1.1434922 0.86184555 10
0.8380453 -1.056401 0.85712576 1
0.79496527 -1.273211 0.8078869 10
-1.364588 -4.7654972 -0.18826385 0
0.84034771 -1.1319716 0.83849591 1
-1.5804181 -4.5972362 -0.16738291 0
-4.4356542 -1.429508 -0.17193194 0
-3.3894577 -3.3091719 -0.17076798 0
-4.4697075 -0.99592334 -0.15232415 0
-3.0581863 -3.5150645 -0.14436145 0
-2.2051082 -4.1960077 -0.14818425 0
-2.4299216 -4.0396981 -0.14595242 0
-3.1232147 -3.4127202 -0.13721891 0
-4.1420264 -2.0177529 -0.15282376 0
-2.9993186 -3.7019761 -0.17014726 0
-4.2836695 -1.6337935 -0.14994819 0
-2.8034837 -3.7417228 -0.14343925 0
-3.6797936 -2.8143976 -0.1500109 0
-1.9642043 -4.3261442 -0.14625032 1
-2.6828713 -3.864202 -0.14842375 0
-4.4698062 -0.87408656 -0.14611502 0
-4.4139209 -1.1392809 -0.1460218 0
-3.8853395 -2.461292 -0.14568217 0
-4.197186 -1.8192227 -0.14566739 0
-2.6475301 -3.9884419 -0.16907127 0
-3.5012643 -3.0221705 -0.1445498 0
-5.1313396 1.4718505 -0.1455787 0
-4.296699 3.1417899 -0.12945552 0
-4.1673412 3.4348531 -0.14455505 0
-3.7255399 4.0168839 -0.15512092 0
-3.9977148 3.7544856 -0.16049178 0
-0.23956078 5.829628 -0.18342645 0
-4.1894193 3.2811496 -0.12749024 0
-3.5915687 4.2493072 -0.17201145 0
-0.55873471 5.7873154 -0.18347688 0
-1.8606083 5.3087063 -0.159867 1
-1.5894462 5.4377203 -0.16484268 0
-2.2356341 5.2614841 -0.18609948 0
-2.5937417 5.0708742 -0.18665798 0
-2.8341072 4.8801451 -0.17848332 0
-2.7303476 4.9459801 -0.17832167 0
-2.4510107 5.1506767 -0.18643542 0
-2.3452582 5.2064924 -0.18627055 0
-2.0708292 5.3409948 -0.18629225 0
-0.04071546 5.9083018 -0.1975127 1
-1.2109553 5.5673037 -0.16650052 1
0.74847412 6.0620728 -0.23226865 3
0.50287157 2.2483354 0.64968318 1
1.0877069 2.0523872 0.66635215 6
1.8920424 4.1944823 0.13938551 12
1.6316971 2.7168138 0.47688398 2
2.1759641 4.1866541 0.11688642 3
1.0919124 2.280077 0.61641496 7
1.6626322 2.5511003 0.50797921 1
2.0764332 2.3105333 0.50458491 2
2.6173239 2.0306888 0.46809813 2
2.0719454 2.4966955 0.47038141 1
4.8263016 0.94160509 0.11751609 1
5.4046035 2.273025 -0.10475488 1
5.7842445 1.1225078 -0.10593469 0
4.9882545 0.90790641 0.082678601 1
5.7422357 1.074562 -0.094302252 0
4.5547705 1.9098613 0.10717194 1
4.9932671 0.94269127 0.079986379 1
5.774394 0.94441199 -0.096048549 0
5.7257795 1.2089102 -0.097030237 0
2.8842623 2.0124774 0.4239774 2
3.3844974 2.0188503 0.33028319 3
3.5673413 1.967207 0.30132768 2
3.1391771 2.0007217 0.37893769 2
3.8040071 1.9486066 0.25670949 1
3.8108454 -4.071228 -0.06033738 0
1.6021751 -1.4973192 0.71897185 1
5.5875406 -1.6289759 -0.09134014 1
4.940134 -1.4459136 0.062855765 11
5.1348195 -2.5704467 -0.079434469 1
4.4960141 -2.156122 0.094565913 1
4.8887219 -2.046633 0.024545712 7
4.7558513 -1.8584878 0.069773361 9
4.5581584 -2.0045679 0.097359702 45
4.8841186 -1.8021539 0.047478482 3
4.9843621 -2.7463946 -0.069319442 1
4.8389106 -1.5176001 0.079794571 13
0.21920116 -1.1127369 0.91160005 13
-0.27775884 -5.7728844 -0.17110057 7
3.0400932 -4.5560594 -0.048940495 6
1.404566 -1.789206 0.69032371 29
2.4758425 -3.6352534 0.19940047 1
1.4613653 -1.9929252 0.64317727 8
1.3938099 -2.1259406 0.62327826 5
0.84658396 -1.0657866 0.8977375 1
1.4345479 -1.7548321 0.69351935 9
1.3166667 -1.5549612 0.74686855 29
0.79581988 -1.2771734 0.85717088 10
0.29860222 -1.0653983 0.9238711 2
1.4040102 -1.986746 0.65073544 51
0.82917917 -1.108246 0.89051265 1
-5.1924815 -1.2224172 -0.14561935 0
-4.9294171 -1.7573965 -0.11955078 0
-3.73719 -3.9325511 -0.1432782 0
-4.6619949 -2.6603653 -0.14475663 0
-3.8371198 -3.7042325 -0.12454398 0
-4.8505731 -2.2709656 -0.14506085 0
-4.7426562 -2.5029774 -0.14488657 0
-4.4669461 -3.0018191 -0.14489324 0
-1.4209225 -5.5864949 -0.18459709 0
-4.9482517 -2.033392 -0.14521916 0
-1.9729519 -5.2779078 -0.16342516 0
-2.2099349 -5.2112079 -0.17279668 0
-4.1903715 -3.2398918 -0.12195905 0
-4.2805409 -3.046891 -0.11400624 0
-4.0603261 -3.3374751 -0.11095507 0
-2.6233146 -4.9177971 -0.15950485 0
-4.7480726 -2.3746436 -0.13320024 0
-3.1729932 -4.3584566 -0.12708671 1
-2.9192407 -4.5438681 -0.12533469 1
-1.0862228 -5.5964799 -0.16517527 0
-5.9096909 1.8948749 -0.10834236 0
-5.1550436 3.6710911 -0.12245841 1
-4.1319518 5.2599077 -0.17850871 1
-3.8138516 5.5118332 -0.17763276 1
-6.0650163 1.6301335 -0.12384541 1
-3.0388467 5.8911753 -0.15505286 1
-2.7820668 6.0574832 -0.15923257 1
-2.5100572 6.2028637 -0.16109808 1
-3.5397518 5.579278 -0.15659638 1
-4.983542 3.9154303 -0.12219413 1
-3.2868497 5.7559543 -0.15772934 1
-4.2874942 4.8018184 -0.13294943 2
-3.4605772 5.7608094 -0.17708321 1
-4.7789745 4.16045 -0.11958821 1
-1.8602607 6.5650649 -0.17916603 1
-2.2323763 6.3355641 -0.1629544 2
-4.4514356 4.7366066 -0.14656205 1
0.82247806 7.1295834 -0.2184691 1
0.50455809 2.1665845 0.74777329 6
1.0888175 2.0546429 0.7456401 4
1.8979746 4.2088895 0.29960957 8
1.684833 2.6388011 0.59582478 1
2.6057706 4.5493793 0.18508373 69
2.4999113 4.5746527 0.1894965 77
1.0984472 2.2987907 0.70023763 15
2.1473858 2.848582 0.51640701 1
1.8958926 2.7162821 0.56333542 1
2.1929104 4.1840987 0.28290054 9
2.7248986 2.0674326 0.55930793 3
4.7068081 1.0118512 0.30446795 1
6.0106945 1.2095391 0.05082719 10
5.7489157 2.4263632 0.025204225 27
4.951582 1.0515152 0.25676754 7
4.5290227 1.8974546 0.2816551 2
5.0504146 0.9363324 0.24280529 4
5.9881821 1.0620766 0.060717031 63
5.0647211 1.5909512 0.20732377 0
6.0112119 1.3753494 0.043573782 63
5.0918779 1.7673279 0.1909533 7
5.2292228 1.9142212 0.15605704 7
5.0923567 1.6736088 0.19706188 10
5.3215885 0.97207308 0.19018547 8
5.5731211 1.8632392 0.097447321 25
5.5802536 1.9695605 0.08906059 15
5.5864606 1.7459934 0.10243158 26
5.9239349 1.7290418 0.041521356 44
5.7351923 2.156714 0.048085377 29
6.0322628 1.6336972 0.026810331 57
2.7576001 2.0228746 0.5601235 2
3.1652231 -4.6573114 0.11517052 20
1.5503545 -1.4470286 0.80444288 3
4.0446239 -4.3807535 0.060066387 0
1.3058454 -1.575495 0.81169391 28
2.3602874 -3.6716406 0.35812202 27
1.4137671 -2.0227976 0.72600842 2
4.6120009 -2.1607602 0.24523346 1
5.6893511 -2.7282898 0.010333581 38
2.4675977 -3.5943727 0.36096027 25
1.6797384 -2.499568 0.62034601 1
1.3930253 -2.0889287 0.71643674 30
4.6643829 -4.6655889 -0.060309246 7
5.6546054 -1.6092376 0.098028228 52
4.3938508 -4.4049158 0.012149734 13
5.0169673 -1.8369313 0.19968699 6
5.1286769 -1.5410987 0.19871144 26
5.7878995 -1.48673 0.079917356 124
0.21929446 -1.1092858 0.95308495 12
-0.38798684 -6.799705 -0.16016968 8
1.3933131 -2.1261446 0.70995045 6
0.82544535 -1.0225115 0.95021892 1
-2.0122368 -6.2948818 -0.13945194 1
-1.8377368 -5.7649059 -0.03080924 3
-1.4108773 -6.6743088 -0.17360874 1
-1.2707191 -6.7094102 -0.17338784 1
-1.9800272 -5.6583848 -0.021875935 0
-2.1006868 -5.5668187 -0.01481648 12
0.79161024 -1.2664584 0.90895599 10
-1.0309135 -6.738276 -0.16843124 4
-3.3318748 -5.4692974 -0.11559124 14
-2.9584033 -4.9492221 0.0093923043 2
-3.9391177 -5.1629395 -0.13944824 1
-4.6781397 -4.1472507 -0.10246785 0
-2.872978 -5.0469289 0.0026592445 3
-4.5991521 -4.3485484 -0.11607797 1
-5.0461793 -3.6570673 -0.10305591 0
-3.6996181 -5.273315 -0.12685807 1
-4.491436 -4.4678035 -0.11590631 1
-2.5508754 -5.1973929 0.010037346 5
-5.9775977 -1.2820393 -0.091973975 1
-5.2474489 -3.2256389 -0.091932252 0
-5.3635507 -3.0325389 -0.093645051 5
-5.8718081 -1.9510708 -0.10438748 0
-4.2873693 -4.6841354 -0.11634476 1
-5.6469936 -2.3732858 -0.090287521 2
-5.953341 -1.6696982 -0.10452135 0
-2.3244305 -5.2552876 0.021079345 1
-5.4513092 -2.8259361 -0.090734199 0
-4.899889 -3.9162257 -0.10892673 0
0.87942123 8.7972851 -0.22534581 1
0.50719374 2.1917191 0.82200491 2
1.0933989 2.0652127 0.82261521 2
-7.2104907 2.318378 -0.092119887 1
-6.3096342 4.412981 -0.10388871 1
-5.782248 5.3439407 -0.12623186 1
-2.5571826 8.0117083 -0.18379612 1
-4.7469802 6.336555 -0.12462647 1
-2.3351777 8.0884113 -0.1834491 1
-0.94476622 8.4930115 -0.19253702 1
-3.3832834 7.4872894 -0.16005309 1
-1.6363891 8.3271008 -0.18861397 1
-0.66352838 8.6579247 -0.21212251 1
-5.9819922 5.1062746 -0.12654062 1
-0.39015919 8.6375246 -0.20418389 1
-6.1546464 4.8849688 -0.12680717 1
0.54675674 8.9103613 -0.24151392 1
-4.3027296 6.7885203 -0.13958164 1
1.0857283 2.2583671 0.79412812 6
0.058370527 8.7109375 -0.21099003 1
1.9305869 4.2473001 0.45376059 17
2.6459441 4.5486774 0.36539713 45
1.8391602 2.7024267 0.6823563 1
2.2088077 3.4775548 0.54713559 5
2.1674001 2.94455 0.62342167 2
2.4515781 4.5509849 0.37823239 33
2.3314154 4.3323131 0.41746971 8
2.1948881 2.8331649 0.6359818 1
2.1678076 2.5740464 0.67223758 1
2.1538403 2.4276478 0.69224221 1
2.4600322 2.0975311 0.7002387 7
2.1572027 4.1787939 0.45067635 14
2.1367402 2.2862875 0.71161616 1
2.9066992 2.0137703 0.65651447 2
2.6104748 2.0796418 0.68514472 5
2.0784581 2.0919166 0.74125123 4
3.1626682 2.0006759 0.62562978 2
4.8614879 1.0952632 0.43934307 1
5.1036243 1.3838177 0.39090976 1
4.9040604 1.6407305 0.40811172 10
5.1002226 1.4371068 0.38902608 17
6.028059 1.4396274 0.24875341 45
6.0038676 1.1647824 0.2621744 36
5.9119411 1.660586 0.25701389 43
5.0875673 1.0285648 0.40716103 19
6.039197 1.6336308 0.2390679 50
5.6988034 2.183682 0.26104859 17
5.0094762 1.9787201 0.373229 19
5.7756648 1.7009965 0.2755712 3
5.1904211 1.996576 0.34598026 17
5.3460584 1.0479147 0.36689362 17
4.9695387 2.0753875 0.37285146 5
5.5822034 1.9266446 0.29278347 17
4.5607381 1.9101415 0.44198266 1
5.5693908 1.7974372 0.30152634 17
3.8020453 1.9934027 0.54184639 3
4.0659223 1.9261547 0.51066232 1
5.1282611 -2.319566 0.33408239 5
5.6502509 -1.7108523 0.29390368 14
5.6545711 -1.9416591 0.28140047 33
5.1106505 -1.6306883 0.37815514 8
5.70223 -2.6436059 0.23080496 39
5.1566 -2.2507322 0.33475116 17
5.538218 -4.8472323 0.051944301 93
5.673171 -1.497668 0.30019268 33
5.2966676 -1.927772 0.33465162 15
1.6044595 -1.5018685 0.86040968 1
4.5780106 -4.7727919 0.16525786 35
1.3050148 -1.6124668 0.87339514 22
2.4631479 -3.5901272 0.51232606 24
4.9053969 -5.0337443 0.10038762 4
2.4108305 -3.6752043 0.50473678 8
0.8644343 -1.0948001 0.97812951 1
1.7515329 -2.5296249 0.71298748 3
1.3931329 -2.1094329 0.79782933 45
1.549046 -2.378145 0.74895918 9
5.3658819 -5.0258789 0.051677391 84
0.79324871 -1.2725805 0.95643342 11
0.79994774 -1.0160178 0.99367011 1
-0.53153408 -8.1221132 -0.12490542 24
0.21409498 -1.1553935 0.98586982 10
-2.1086514 -7.9533539 -0.15147658 1
-1.867451 -5.836699 0.17862301 1
-4.225976 -6.601675 -0.10789903 1
-6.4142418 -4.0553603 -0.087609723 1
-6.5227499 -3.771641 -0.080277041 1
-3.2068362 -5.1643643 0.17275147 1
-4.7846355 -6.0496984 -0.093144134 1
-5.5211654 -5.3399282 -0.094315365 1
-6.7691393 -3.2840846 -0.080674008 1
-7.1788197 -2.1900911 -0.081339791 1
-7.226614 -1.6127999 -0.066409066 1
-2.84711 -4.9292932 0.23588543 1
-1.1797528 -8.1812553 -0.15001316 1
-4.5268111 -6.2587786 -0.092735007 1
-0.81022567 -8.2750139 -0.15474971 33
-2.5936818 -5.1839767 0.2225223 1
-0.96975619 -8.1553555 -0.1399848 16
-1.5046476 -8.045495 -0.13988848 1
1.1094162 11.212865 -0.20906146 1
0.50885415 2.2044182 0.89870554 3
1.1032319 2.0900066 0.89769143 2
1.9226934 4.2676311 0.61327142 14
-6.4712653 7.750104 -0.10731252 1
-4.6732693 9.3561316 -0.14108284 1
-2.5033371 10.534335 -0.17426033 1
-3.1560099 10.231586 -0.16309197 1
-5.235764 8.7984695 -0.11758085 1
-5.4792624 8.6394939 -0.11796005 1
-2.9427683 10.301882 -0.16275854 1
-0.82859308 11.14722 -0.20820387 1
-3.8211987 9.9799004 -0.16413136 1
-6.8557467 7.5325723 -0.1200989 1
-7.1061859 7.0737362 -0.10244603 1
1.0982566 2.2936933 0.87428045 7
-6.9492583 7.2689877 -0.10512848 1
-2.1975677 10.714013 -0.18597086 1
-1.0598489 11.120647 -0.2085665 1
-1.6677017 10.785208 -0.18026538 1
2.6694331 4.5914745 0.54107207 39
2.2106819 3.6286397 0.67125922 1
2.451498 4.589045 0.55267304 35
2.2833755 4.3035526 0.59287554 10
2.1888378 2.6993368 0.77068955 1
2.2426038 3.5083272 0.68252385 1
2.2117465 3.1095862 0.72684407 1
2.1333354 4.2004595 0.61165375 14
2.1459451 2.7568748 0.76769614 1
3.4077911 2.0308285 0.72240728 8
3.5726523 1.9824736 0.70877409 3
2.0962262 2.0969794 0.836366 10
2.8884461 2.084389 0.76911974 7
3.1585078 2.025363 0.74760854 35
6.0402842 1.3163098 0.45990553 34
5.9280787 1.6846418 0.46142796 19
5.1251636 1.1228766 0.57327354 16
5.1136732 1.4212527 0.56520599 11
5.2450204 2.0764933 0.5229882 12
5.6115079 1.8729717 0.49066308 4
5.8799071 1.8179874 0.46208081 4
4.8916101 1.9637707 0.56777096 7
5.0987253 1.8232801 0.55103731 30
4.6000376 1.9262238 0.60192478 1
4.9122033 1.259342 0.59414154 45
5.3844924 -4.8378644 0.31933972 26
5.8181543 -1.4992554 0.48057619 100
5.7812734 -2.0106549 0.46566066 31
5.381454 -5.0453377 0.30179003 100
5.5713992 -4.7804117 0.30768886 38
3.8453202 -4.5544858 0.46949747 44
4.3975863 -4.8049693 0.40382913 10
1.5741519 -1.4776617 0.93506515 11
3.7105856 -4.6405263 0.47075012 19
1.3930379 -1.4457719 0.95159805 10
2.9115834 -4.678894 0.51824391 30
1.4447473 -1.7750796 0.91463774 6
2.5460315 -3.7331965 0.64073861 13
1.4714833 -1.9053314 0.89932686 7
2.6530437 -3.6488707 0.64285481 4
1.7156445 -2.5497353 0.81612104 12
0.85273647 -1.0717889 1.0245948 1
3.4769981 -4.72331 0.47842839 40
1.4829481 -2.3104956 0.85499269 1
1.4373167 -1.4423696 0.94874269 15
1.4546672 -1.4440342 0.94730753 19
2.5492573 -3.9558654 0.61686188 1
4.9621234 -5.0645585 0.33501169 1
4.6541719 -4.7944193 0.38448903 24
0.80558044 -1.294163 1.0016139 11
-2.8311257 -9.9208479 -0.11341985 1
0.2156918 -1.1353642 1.0296892 9
-5.5045819 -8.1385632 -0.068906978 1
-1.8887033 -5.8212352 0.40153393 19
-3.3937187 -5.4732656 0.35114679 1
-2.8561959 -4.9390769 0.44313827 2
-7.8825483 -5.3732791 -0.048324183 1
-7.0345068 -6.5774841 -0.054279879 1
-6.7058344 -7.1248622 -0.070814207 1
-6.9008174 -6.9267573 -0.071124509 1
-8.4742479 -4.1059194 -0.037092522 1
-5.9225168 -7.8217926 -0.069569781 1
-8.6932087 -3.3217103 -0.02526577 1
-6.5296569 -7.2947569 -0.070534065 1
-7.5514584 -5.8484163 -0.047794536 1
-8.9562359 -2.4930451 -0.025695758 1
-8.1176548 -4.7569556 -0.034081772 1
-8.3668737 -4.5472713 -0.049101785 1
-7.9738607 -4.988472 -0.032876447 1
-8.8738298 -2.7820485 -0.025560455 1
-4.0524001 14.486312 -0.16143055 1
-11.070362 3.2122235 0.11539452 2
-2.7747173 15.016768 -0.17686625 1
1.1495552 11.205464 0.18810831 2
0.51246065 2.2462556 0.9730891 1
-0.29311013 11.297338 0.1788684 2
1.9199866 4.2587719 0.7747997 11
1.1001019 2.0807309 0.97715294 1
2.646904 4.5457978 0.72730231 9
2.195262 3.6287091 0.81603384 3
2.1495733 2.9131503 0.87245381 1
2.2251697 4.2088561 0.76917905 7
2.4304559 4.5839515 0.73219103 49
1.0887204 2.2641931 0.96231484 8
2.1741786 2.7789171 0.88121074 1
-11.162828 2.8964787 0.11455862 2
2.0885184 4.1726918 0.77663493 11
5.9718361 1.9545348 0.65675151 1
5.9086385 1.6566269 0.66990608 30
5.0281272 1.3594187 0.74975866 10
5.0784607 1.7194495 0.73588538 1
4.7873535 1.9735965 0.7507624 11
3.3076677 2.0848534 0.85685831 1
4.0480361 2.0151021 0.80607754 1
2.1881993 2.4015388 0.90738732 1
3.6190338 1.9632181 0.84026724 1
4.9240408 1.8658135 0.74365819 1
4.1274004 1.9238752 0.80376375 1
2.1041176 2.4641883 0.90725398 1
2.810559 2.0785437 0.89094013 1
2.0742099 2.1436176 0.93109429 3
3.4185247 1.9767454 0.85424566 1
4.8694668 1.078072 0.76921248 3
6.0274243 1.3333222 0.6673103 33
5.0317502 1.3249874 0.75028801 6
5.6437135 -1.9200859 0.68438005 34
5.7819991 -1.4904764 0.68441409 58
1.3383493 -1.7387414 0.99590838 41
3.1825645 -4.6965523 0.6939941 11
3.5478389 -4.6521101 0.68044764 11
1.544583 -1.7664021 0.98455387 5
1.4811983 -1.7656062 0.98759192 27
2.7023704 -3.7282729 0.78734851 1
4.9577112 -5.0619159 0.57756019 2
4.153038 -4.6133771 0.65211284 9
4.6896486 -4.8020606 0.60973018 12
3.8644123 -4.5813074 0.66961312 9
5.5470204 -4.8273473 0.55669183 62
5.360465 -4.8506665 0.56685799 45
5.3216348 -5.0542827 0.55669117 96
-1.2005377 -14.320926 -0.092213109 12
0.21869214 -1.1038445 1.0727515 4
2.9680042 -4.6674662 0.7053355 36
0.83092993 -1.0274073 1.0709225 1
2.8118372 -4.6508665 0.7129339 31
2.2485175 -3.6864395 0.80964398 1
1.6470513 -2.550632 0.92110717 2
-1.6448519 -13.875962 -0.059103563 14
0.79745209 -1.2727973 1.0522236 11
0.71920067 -1.1313896 1.0660428 50
-4.3789163 -12.090053 0.02755682 14
-2.105792 -5.7196889 0.62226093 1
-6.6984754 -10.321915 0.066409871 19
-3.3111467 -5.4264641 0.59247214 81
-2.899893 -4.9247313 0.64958465 64
-11.714006 -3.6377571 0.050029323 2
-8.0174351 -8.6277523 0.1064872 2
-7.0430441 -9.146533 0.13051431 23
-10.884547 -5.8603473 0.045102403 2
-9.9360313 -7.6138968 0.03547208 2
-10.295706 -7.1030798 0.034896657 2
-7.6098638 -10.070513 0.035514995 12
-3.7743981 -12.417828 0.019448681 21
-3.6665504 -12.530402 0.013170881 19
-8.0535011 -9.2867203 0.062169001 19
-3.6714127 -12.854768 -0.014022665 16
-7.3949528 -9.6585789 0.075761363 14
-7.6011872 -9.699275 0.061319157 23
-1.9677107 -13.745255 -0.052640751 18
-3.3589146 -13.132317 -0.029039817 10
-1.3142399 26.512259 -0.22527011 3
-2.6403105 25.994326 -0.2064075 3
-0.25229084 11.337263 0.57389188 16
-3.1151977 23.592312 -0.085475042 2
-15.499362 4.3464551 0.28453866 6
-13.890724 9.4654665 0.25199917 14
-5.3107271 24.318964 -0.14776345 3
-6.6418824 23.358833 -0.11906059 5
-3.0685878 22.718931 -0.039746717 2
-9.1528292 21.140776 -0.059736207 2
-9.5626907 20.872477 -0.056606248 2
-5.2952814 22.168818 -0.037998512 2
-5.0261531 22.05871 -0.02857204 2
-3.5049977 22.440575 -0.029645042 10
-4.8383055 21.935286 -0.019691424 5
-13.202349 13.063294 0.16256957 14
-13.159812 10.028975 0.26747552 6
-4.6339016 21.746954 -0.0073291827 5
-11.865698 12.704428 0.22747926 8
-11.4359 13.992661 0.19295786 8
1.153831 11.218631 0.58154541 6
0.51467878 2.2656207 1.051122 1
1.0905038 2.0750892 1.0553796 2
2.0872064 4.7538538 0.90710407 9
4.4242754 4.4052873 0.86127144 24
2.6828973 2.4288573 0.99653524 1
4.2609234 4.4720788 0.86415374 41
3.1950099 3.2815289 0.94624197 77
2.7593081 4.5280542 0.90450066 24
2.2832615 3.6093209 0.95799208 13
2.1774113 4.0651731 0.93887085 46
2.4999931 4.5628033 0.9085936 52
2.3741672 4.6226349 0.90829009 15
2.7616203 2.4072397 0.99456584 1
1.0946686 2.2535596 1.0464854 10
2.9227257 3.2332363 0.95691061 78
2.2511141 3.2467089 0.97532463 25
3.982548 2.178812 0.95294434 6
6.2703986 4.3769774 0.7926802 2
4.9281788 3.2436152 0.88239306 1
3.1293399 2.1369672 0.98991525 1
5.3033161 3.2311442 0.86707228 1
6.1908345 3.5528791 0.82010096 17
6.1246614 2.5638607 0.84712744 38
5.1086807 1.5258168 0.91474146 1
5.1029572 1.4155174 0.91672355 30
6.072031 1.6162711 0.86653322 59
5.0898399 1.2860531 0.91921777 12
6.0855269 2.1976302 0.85628462 38
5.9973083 1.447901 0.87249035 46
5.0301218 2.0207727 0.9093743 2
5.2351828 1.9101248 0.90195292 1
4.5536666 3.1342223 0.90106684 1
6.2424798 4.0474157 0.80384302 57
4.8703198 2.6670985 0.90125966 2
5.9242158 1.7423866 0.87184614 17
5.9438319 1.8576131 0.86904842 53
4.9937978 -5.1054029 0.81515425 8
4.6754498 -4.7901616 0.83809441 33
5.6312923 -1.9177948 0.88307995 55
5.541563 -4.8260331 0.80616957 90
5.7964101 -1.4965492 0.88176054 86
5.3706698 -4.8642755 0.81103086 56
5.3260589 -5.0626841 0.80531263 100
0.082189523 -2.061933 1.0607896 1
-3.0347672 -21.918091 0.0029881429 2
-3.3830042 -21.659096 0.012903137 2
-1.7578456 -15.806275 0.33144453 8
2.7116132 -4.6634307 0.89948583 2
1.4995941 -1.7954441 1.0596604 9
3.0984299 -4.6716228 0.8899402 13
1.3869264 -1.7946494 1.0626237 1
3.301892 -4.6757131 0.88450283 15
3.1768565 -3.7191174 0.92919117 4
0.84478039 -1.0570571 1.1092783 1
3.6800535 -4.6044984 0.8770355 31
2.60184 -3.6859348 0.94681442 4
2.80779 -3.7512393 0.93845141 1
0.22023165 -1.1227945 1.1107063 8
1.3253218 -1.7884219 1.0644109 1
4.0602312 -4.7019839 0.86151505 50
3.8317201 -4.6087737 0.87235421 38
0.79806709 -1.2760695 1.0995796 12
-10.865785 -16.425402 0.11084561 2
-2.6459866 -5.2214828 0.85036629 1
-3.1126812 -5.1654067 0.8392697 12
-7.1063051 -17.770639 0.14901619 2
-11.458534 -16.178463 0.10258262 2
-3.8562968 -13.766612 0.40954199 21
-11.484124 -15.861893 0.11509661 2
-7.1617918 -18.26004 0.12413184 8
-13.284523 -13.767332 0.13399808 2
-6.9807105 -17.997456 0.1407396 8
-5.1335974 -19.414961 0.10473125 6
-5.7914181 -19.160931 0.10651927 2
-13.231683 -3.4301858 0.41543618 2
-13.596333 -3.2135713 0.398949 2
-13.462863 -4.7992687 0.38286236 14
-13.429021 -4.895473 0.38291749 12
-14.716915 -3.638509 0.33491811 14
-12.589566 -6.7449236 0.38584384 4
-4.9830365 -17.041153 0.22644328 10
-6.5581832 -17.480362 0.17478286 6
-6.979238 58.719227 0.12444012 11
-11.242908 55.081848 0.168222 10
-4.3071694 22.488646 0.76143837 1
-2.1845751 38.529873 0.49127647 3
-0.24935913 11.345314 0.97055775 9
-3.4552886 22.665991 0.76245832 3
-11.688686 54.412983 0.17730896 10
-19.989586 21.916584 0.61591214 2
-20.083889 20.697567 0.63003027 5
-15.570903 49.539345 0.23581676 8
-14.190798 23.888729 0.65869606 19
-11.838411 54.236237 0.17952089 10
-13.401642 30.634495 0.56178379 12
-14.372084 22.731752 0.67386311 2
-14.284479 18.804901 0.73090649 15
-12.406376 54.968113 0.16395383 10
-13.66711 15.631446 0.7814014 4
-19.262968 31.011337 0.49825945 3
-20.501638 15.609539 0.68253422 8
-14.308137 50.964119 0.22038786 8
0.9664737 11.254484 0.97400481 3
0.5240885 3.0275178 1.1172872 16
1.0982077 2.0942619 1.1322397 3
2.094192 4.7684221 1.0839396 5
4.4277525 4.4063058 1.0713459 8
2.6459048 2.3560045 1.1159558 1
4.2841125 4.4956903 1.0716422 31
3.229651 3.3191876 1.0975852 42
2.7834146 4.5697422 1.0832459 20
2.2952368 3.6288764 1.1009982 11
0.51494753 2.166045 1.1322997 14
2.3562529 4.7111959 1.0835844 45
2.1292613 4.142695 1.0939205 34
2.2459967 4.0613861 1.0945593 38
2.5250053 4.5686426 1.0848994 40
1.0949727 2.252255 1.1296484 10
2.2503104 3.2431157 1.1071835 27
2.8680241 3.1834025 1.1028842 53
18.802151 9.8323345 0.83359224 1
6.3915448 3.3086143 1.0589547 2
6.6082096 3.7436287 1.0522352 6
17.156693 9.9610834 0.85495025 8
18.240831 9.8527603 0.84115726 1
6.4046307 3.1781259 1.0598506 1
6.3380895 2.7556036 1.0640481 2
6.2440057 4.4170251 1.0503929 2
3.0505941 2.182584 1.1133837 1
6.1511478 2.6208062 1.0677015 1
4.9807091 3.228935 1.0784516 5
6.253273 3.9931467 1.0545698 22
6.260397 4.1487312 1.0529373 24
2.7842581 2.1877534 1.1164558 1
6.0735922 1.6362879 1.0747904 54
5.9768782 2.0865555 1.0737915 40
6.2786713 3.7455204 1.0566044 12
5.9616084 1.3543898 1.0777618 49
15.01748 -7.0007877 0.90925336 1
5.7438412 -2.4874957 1.0746017 37
5.8657823 -3.2032781 1.0671637 1
2.6853607 -4.6164942 1.0833505 1
0.83365113 -1.035122 1.1507372 1
2.4448895 -3.7173948 1.0987663 8
2.6208899 -3.7201774 1.0974371 4
2.7822323 -4.6451135 1.0822816 43
5.9378614 -3.991878 1.0587763 1
3.2983582 -4.6383562 1.0786591 3
3.5766485 -4.0659833 1.0843898 55
2.814604 -3.7363505 1.0956823 11
4.1710358 -4.7427649 1.06963 39
3.1561549 -4.6982784 1.0788559 1
3.0026248 -4.1438293 1.088237 1
4.6800623 -4.7989974 1.0639033 32
3.0025485 -3.7576334 1.0938138 2
5.0394888 -5.1234512 1.0560623 9
2.257103 -3.7101686 1.1001468 2
2.9057224 -4.6030912 1.0820907 1
-6.1081901 -16.154387 0.85664934 2
-9.4072351 -34.083912 0.53664631 3
-5.6898909 -16.076019 0.86121398 1
-15.554503 -37.908699 0.42836037 4
-7.2190571 -31.339809 0.59608346 3
-15.546625 -42.816795 0.34882078 6
-15.523809 -43.217388 0.3424423 6
-5.7944288 -33.55579 0.56566036 19
-4.2338295 -31.855295 0.60175931 3
-1.5825837 -12.728658 0.94257087 1
-15.914913 -42.001549 0.35925558 5
-1.8404367 -12.378675 0.94746429 7
-15.634521 -38.858425 0.41240737 4
-6.5614581 -16.133766 0.85324943 2
-16.236013 -42.413082 0.35003355 6
-5.4512839 -33.632877 0.5659216 19
-15.179268 -38.128571 0.42790702 9
-15.114614 -34.503635 0.48657414 3
0.087832145 -2.00878 1.1343325 9
-15.141709 -32.694832 0.51497686 3
-2.6266453 -5.6304708 1.0544356 5
-17.806366 -32.820698 0.48761806 3
-17.030411 -31.677393 0.51282763 3
-15.79862 -31.757917 0.52355963 10
-6.6105204 -14.294189 0.88200092 6
-6.8304114 -14.475895 0.87712169 1
-20.97543 -31.916061 0.46733442 3
-15.683203 -32.111519 0.51914072 3
-8.6169472 -13.507218 0.87338871 1
-6.8743434 -12.724118 0.90368402 10
-8.0815096 -13.306005 0.88225353 2
-20.668581 -31.009109 0.4839237 7
-20.886021 -31.095829 0.48019829 11
-22.375763 -11.937934 0.68675441 2
-14.172319 -7.564116 0.8618198 4
-21.980543 -10.854487 0.70204777 4
-14.34741 -7.2048073 0.86164218 3
-22.456318 -10.889841 0.69355249 2
-21.400482 -10.478652 0.71492332 6
-20.209229 -12.991725 0.71373916 2
-8.726018 58.574863 2.1891496 15
-8.6018372 58.998459 2.196317 15
-2.3774564 38.266376 1.8345716 7
-0.2319622 11.342228 1.3671043 16
-9.8007317 46.943645 1.991396 12
-4.435204 22.46826 1.5629673 2
-3.4156756 22.664696 1.5646342 2
-10.278463 47.584034 2.0033379 13
-4.3087616 22.274157 1.5594001 2
-10.371558 46.509048 1.9852728 12
-13.133925 23.494289 1.6210502 6
-20.440863 17.014744 1.6057295 20
-19.099815 34.178307 1.8250446 15
-18.801008 37.794647 1.8785995 9
-10.635917 46.180271 1.9803269 12
-14.92213 29.873648 1.7309233 15
-13.095298 23.052395 1.614104 6
-18.84646 37.237053 1.8702323 18
-13.517379 11.259536 1.4595788 12
-19.050123 34.651711 1.8318844 15
1.1350976 11.22164 1.3674036 16
0.51246715 2.1883144 1.2085624 3
1.090348 2.0630238 1.2095073 2
2.0937495 4.7450318 1.2610117 45
2.9009297 4.655911 1.2667489 52
2.9046168 3.4603262 1.2492222 1
3.7531395 4.5686879 1.2748955 53
2.2722764 3.4587791 1.2421906 10
2.3853803 4.7137332 1.2628665 56
2.1507628 4.1353841 1.2516197 66
2.2572565 4.0692263 1.2515091 36
2.5185359 4.5782609 1.2618916 61
2.6270225 3.224586 1.242613 4
1.0983791 2.2510576 1.2126576 8
4.8603053 4.502274 1.2884682 36
4.2885547 4.4273458 1.2797533 42
2.2643406 3.2323313 1.2386924 61
18.84293 9.8173752 1.5645992 2
6.4104075 3.3067446 1.3002467 2
6.4642205 3.7030971 1.3045815 1
17.2143 9.960063 1.538443 2
18.08658 9.8940268 1.5524497 2
6.4251971 3.1769116 1.2994349 2
6.1403112 2.6051216 1.2901684 14
6.3784223 2.7627962 1.2954606 2
4.96387 3.813467 1.2819085 2
4.6324158 3.8795216 1.2777565 2
5.4405079 4.451026 1.2961869 24
5.876121 4.4378653 1.3025608 18
6.2876239 4.4047399 1.3085481 1
5.0646672 4.4840899 1.2911283 32
5.9610515 2.0707874 1.2834754 46
6.2923017 4.0668297 1.3052115 1
6.2292695 3.7593646 1.3012445 16
6.0796766 1.6283643 1.2832519 53
5.9817557 1.0021603 1.2789922 4
5.8643508 -3.3963704 1.2920574 2
5.8368931 -4.1990666 1.2995702 2
23.323492 -15.712996 1.6925122 3
21.926418 -15.885704 1.6721712 3
23.15089 -16.664078 1.6993812 3
5.7414165 -2.496825 1.2825263 21
14.620514 -7.3367081 1.4729437 2
2.7310138 -4.6423674 1.2650677 50
0.89464074 -1.1455125 1.1931748 1
2.4279792 -3.7015612 1.2476087 3
2.7742734 -3.6885476 1.2511191 1
2.6300857 -3.7472327 1.2504052 1
4.2050157 -4.7664251 1.2833713 17
3.2039156 -3.7429688 1.2569259 5
3.3938241 -4.6955342 1.2727416 25
3.5280168 -4.2850795 1.2684062 14
3.0891795 -4.6774502 1.2691911 54
5.0189013 -5.1175594 1.2985837 18
3.5313604 -4.7241902 1.2747034 55
4.6681447 -4.8013616 1.2898238 29
-6.4549513 -32.947071 1.747187 5
-6.9418759 -32.974079 1.7486569 5
-1.1377355 -14.350672 1.419789 6
0.22291765 -1.112399 1.1893618 6
-2.4750037 -12.318149 1.3863724 14
-2.1520832 -11.852501 1.3777249 12
-2.0581703 -11.81468 1.3768942 6
-1.1277375 -13.778712 1.4098451 8
-2.1061869 -12.2721 1.3848215 12
-3.1034992 -12.612305 1.3930357 10
-3.0143411 -12.63212 1.3931062 4
-5.6946406 -17.867979 1.4900544 2
-5.5785174 -17.936211 1.4907267 2
-3.6068573 -13.350784 1.40706 6
-7.006835 -16.323181 1.4712076 2
-4.10535 -17.486908 1.4783012 6
-2.8704097 -13.829763 1.4130433 14
-5.0139837 -11.667308 1.3858624 16
-2.8952737 -15.120955 1.4351256 2
-3.1297212 -13.845476 1.4139627 6
-7.6107311 -11.600975 1.4031798 2
-28.175684 -42.551563 2.020123 14
-27.951448 -41.617302 2.0047488 13
-8.1270819 -12.820024 1.4250821 2
-27.700918 -40.333618 1.9841728 13
-26.654449 -35.042377 1.9003651 10
-27.523026 -39.48658 1.9705427 12
-19.744669 -26.259338 1.7159872 5
-18.817034 -24.686995 1.6857879 4
-24.217031 -20.900368 1.6946474 4
-24.71158 -24.362389 1.7410285 5
-18.268801 -16.181126 1.5714625 5
-14.169107 -7.5330124 1.4326233 2
-23.14134 -12.29781 1.595948 29
-23.038988 -11.424197 1.5876089 9
-17.431101 -15.235898 1.5509081 8
-14.246565 -7.1896305 1.4309937 2
-26.768248 -35.702984 1.9105667 10
-24.218182 -21.206219 1.6981424 4
-26.823978 -36.036919 1.9157217 10
-11.884634 44.012043 3.543654 6
-12.573488 42.468304 3.4749858 6
-3.4102895 39.418674 3.2384348 4
-6.3149929 42.094383 3.3920822 10
-2.0634749 19.50458 2.195704 4
-5.1497564 42.245735 3.3930714 5
-12.245324 37.604771 3.2275281 12
-3.4075809 23.160009 2.3931274 3
-4.5640202 38.792919 3.2106771 12
-6.66008 21.152 2.3260953 15
-3.4230156 22.750725 2.3720727 3
-5.2459788 41.842278 3.3726223 5
-20.438786 18.131224 2.5819004 13
-1.8577626 19.516676 2.1953986 10
-19.118395 35.085361 3.2410707 12
-12.771705 37.85606 3.2480497 4
-13.102077 24.035257 2.5914164 22
-3.4684591 22.5123 2.3600736 3
-19.105511 35.352562 3.2530181 13
-5.8482261 21.118311 2.313031 14
-3.1389654 54.657024 4.0336361 10
-1.6843565 38.052475 3.1630878 7
-0.22942114 11.358538 1.7648859 11
-1.9628868 38.252808 3.1739507 3
-1.1675682 21.274023 2.2848942 9
-1.2929262 21.012421 2.2715139 35
1.1341298 11.161877 1.7575061 42
0.51731402 2.2393312 1.2879995 1
1.1602972 2.1147552 1.2902678 7
2.0867226 4.7217894 1.4366399 32
1.0962238 2.0771196 1.2871325 2
2.1923933 4.7069545 1.4380622 42
2.3325438 4.7207985 1.4417362 61
2.0946212 4.1209707 1.4075658 40
2.256084 4.0636005 1.4085532 34
2.5163312 4.5701208 1.438783 53
1.0929419 2.2075956 1.2935096 7
2.9058876 4.6615863 1.4530003 56
4.7273622 4.3979549 1.5026546 54
4.2820783 4.5402765 1.4914852 97
6.4667983 3.1689067 1.5414187 1
18.578516 10.160488 2.2929995 1
18.330658 9.9403152 2.2756579 1
21.024742 9.803977 2.4023576 1
6.342042 2.7691956 1.5261581 3
20.138081 9.8021269 2.3590965 1
6.398253 3.2688503 1.5405762 3
18.726683 9.8305206 2.2917736 1
19.676537 9.8314638 2.3374367 1
6.5072355 3.7263763 1.5575901 1
6.1356173 2.6007445 1.5123347 31
3.9845304 2.6222339 1.4112972 14
4.9515171 3.8008649 1.4906676 1
6.3933101 4.1329412 1.5638926 1
4.6102295 3.8842432 1.4794533 3
6.2670445 4.3866172 1.5659919 77
5.0759082 4.366415 1.5152398 42
5.7306218 4.3495846 1.5417037 12
6.1045537 2.1672852 1.5021417 63
6.06529 1.6438571 1.4915189 87
34.050014 -16.155945 3.1828465 3
25.705036 -18.817385 2.8658288 2
5.7263784 -2.4923129 1.4899204 21
14.310143 -7.183929 2.0157616 1
33.297855 -16.653254 3.1578104 3
5.8662801 -3.40043 1.5191529 3
34.070065 -16.895798 3.200897 3
33.462536 -16.159819 3.1542907 3
5.952775 -4.2598963 1.5485098 2
24.778076 -17.866703 2.7956886 2
17.934488 -11.682274 2.3051023 8
30.242697 -20.153545 3.1076567 3
30.664562 -20.592115 3.1395206 3
14.774245 -6.85782 2.030719 1
18.725704 -11.39172 2.3330302 8
28.480112 -18.823345 2.9893034 3
29.606756 -20.023632 3.075254 3
18.241295 -11.706607 2.3197153 3
23.951242 -17.136196 2.7368057 2
24.053951 -16.592751 2.7248137 2
-0.98943931 -12.852507 1.8453109 1
0.22418259 -1.0951043 1.2275259 10
-3.1834671 -13.064742 1.8737948 10
-5.1035523 -12.657372 1.8836458 27
-2.9012628 -11.690462 1.8008347 7
-1.8471277 -12.28307 1.8206104 22
-2.1309578 -12.825734 1.8508449 5
-4.0715942 -12.462768 1.8560588 13
-2.6070831 -12.669721 1.8472677 12
-3.0753314 -12.841416 1.86119 31
-3.7319634 -12.17398 1.8364892 25
-2.8483059 -12.88923 1.8610241 1
-1.9226217 -12.200387 1.8169314 4
-2.0277267 -13.035969 1.8608503 14
-4.901988 -12.300414 1.8626019 12
-2.0223458 -11.825349 1.7984494 1
-3.6179507 -11.563184 1.8044168 9
-3.377048 -12.086336 1.8269963 31
-1.9108202 -13.161956 1.8664795 6
-4.8316584 -11.802163 1.8372668 10
-27.45158 -38.490532 3.6148992 7
-8.4540091 -12.262786 1.947041 3
-27.376677 -38.105778 3.5963774 7
-27.299425 -37.722023 3.5778592 14
-7.5410361 -11.235328 1.876858 1
-27.212717 -37.329639 3.5587275 14
-26.644836 -34.500607 3.4234877 11
-19.624456 -25.339823 2.8295288 5
-18.395781 -23.441256 2.7134538 15
-14.147372 -7.4507895 2.0008044 8
-23.186001 -12.205575 2.5218961 12
-23.10232 -11.343171 2.4978306 14
-14.293053 -7.1424236 2.0001507 7
-26.718988 -34.845413 3.440021 12
-16.975964 -9.6806612 2.1823061 4
-18.209032 -15.551425 2.4094079 11
-24.286358 -21.099051 2.8309133 8
-23.299395 -13.10919 2.5493703 17
-26.773994 -35.168999 3.4551189 18
-20.606737 -12.195835 2.4072485 15
-23.260336 45.854641 5.6433673 12
-23.272158 46.273933 5.6764593 12
-12.285361 41.023064 4.9041886 9
-9.1988611 17.631128 2.9080701 14
-12.908417 37.439594 4.6226425 8
-2.9563344 20.843943 3.0105412 6
-14.476157 37.658306 4.6860657 8
-9.8473949 17.223234 2.9039226 4
-6.0889978 21.140629 3.0924227 15
-2.1933265 14.360148 2.4413505 15
-14.029628 29.15403 3.9900436 16
-12.902159 23.112919 3.478765 21
-3.6591001 22.236788 3.1397941 7
-5.5324907 20.048655 2.9878604 17
-3.6637475 21.867432 3.1080697 10
-15.917278 19.680964 3.3768346 3
-9.7323189 29.087618 3.8463626 9
-9.5797844 17.451954 2.9099162 14
-1.7543395 14.525046 2.4502292 20
-15.478102 23.639349 3.6326351 4
1.1700768 11.643265 2.1923673 52
-0.22601193 11.317018 2.1602001 3
0.51778626 2.2417836 1.3670419 1
-0.74572808 20.393669 2.9545817 8
1.1040096 11.274417 2.1596749 58
-1.2662055 22.711063 3.1588817 5
1.1554725 2.1234736 1.3704863 5
2.0926616 4.7871161 1.6189029 4
1.0767483 2.0678191 1.3633913 6
2.2330563 4.7116494 1.6173818 56
-1.343569 19.891487 2.9133871 14
-1.3360419 20.663786 2.9806674 12
2.0662756 4.0907454 1.5613528 39
2.5679197 4.5534167 1.6172136 48
2.3085012 4.0969472 1.5709716 28
2.1475694 4.3245764 1.5830904 13
2.8216937 4.5451279 1.6271995 49
4.6905069 4.3904386 1.7179906 35
4.2863855 4.4209952 1.6950434 37
1.0346433 2.0845909 1.3634992 10
31.921894 17.440842 4.3765559 6
30.013573 17.069883 4.2121539 6
30.090408 16.838676 4.208096 6
29.778942 17.085762 4.1947026 6
6.368166 3.2800865 1.7804369 2
6.5754499 3.7366457 1.8163126 3
6.3383646 2.7664063 1.7579144 1
4.9580097 3.8322816 1.702734 1
4.6402907 3.8831217 1.6841056 1
5.8233294 4.4230342 1.7954202 31
5.0755124 4.3343678 1.7395138 28
5.4744234 4.2299991 1.7605368 16
6.1415715 2.6023571 1.7359941 20
4.8637862 4.5017247 1.7358658 36
6.2156429 3.7468436 1.7894262 38
5.9708319 2.0712833 1.7043607 33
6.2657514 4.3843665 1.8247027 44
5.9345784 1.6478212 1.6896704 42
5.0384974 4.4849882 1.7460763 42
32.206001 -21.485939 4.5838389 7
28.087358 -19.278601 4.1708307 5
8.5106764 -5.6381154 2.0520761 3
8.4727478 -5.6962209 2.0521922 4
5.8552346 -3.3951843 1.7459521 2
16.502642 -11.82338 2.9483399 2
14.673718 -10.718335 2.7592802 1
5.899847 -4.2215939 1.79014 1
17.355843 -12.180197 3.028476 2
8.346756 -5.9460378 2.0558343 1
17.704283 -10.932562 2.993438 2
18.179829 -11.058636 3.0353248 4
14.982383 -10.790435 2.7852159 1
13.969145 -7.3710837 2.5478849 1
16.809608 -10.289366 2.8957996 1
8.7852974 -4.4929609 2.0209334 6
12.716574 -6.6382518 2.419004 1
11.907898 -6.7892981 2.3624804 6
18.010902 -11.385738 3.0378554 2
2.7274771 -4.6425848 1.630901 30
0.21965507 -1.1380146 1.2699003 7
-1.1244656 -14.132953 2.4110184 13
-2.6496398 -14.68938 2.476965 1
-2.5437949 -14.426139 2.4527221 1
-2.3508193 -11.553417 2.2037003 2
-2.4258387 -11.511159 2.2014899 4
-5.2867999 -13.075878 2.4065521 5
-2.6522744 -13.270802 2.3556108 20
-4.3941016 -12.265 2.312763 10
-2.3885367 -12.298717 2.2679775 4
-3.014848 -12.966051 2.3365581 6
-3.7939508 -12.643237 2.3273096 12
-2.3355229 -12.911097 2.3194952 4
-1.9872322 -13.055066 2.326669 12
-4.0138621 -12.155407 2.292789 20
-3.3944402 -11.838124 2.2501774 6
-3.7052443 -11.545987 2.2339952 6
-5.5464077 -12.807961 2.3939369 9
-1.6307002 -14.566333 2.4531131 9
-1.8641753 -13.161169 2.3341856 2
-22.78524 -19.944443 3.8050835 4
-19.672352 -23.980452 3.8710642 4
-7.9016562 -10.148605 2.3005874 2
-11.141999 -10.250727 2.4982255 15
-22.058945 -20.278635 3.7779922 9
-13.995462 -10.173451 2.6849625 9
-13.88507 -11.263073 2.734663 1
-23.179182 -11.172734 3.4105144 10
-13.802209 -6.7774754 2.5192516 3
-14.190821 -10.859373 2.7338259 13
-18.78018 -16.252136 3.3350773 3
-19.395082 -23.150915 3.8003631 4
-19.923241 -15.367079 3.3627229 6
-19.424429 -14.452475 3.2806895 6
-13.427204 -8.526967 2.5646746 15
-19.270432 -12.92884 3.1937442 2
-22.036091 -20.833687 3.8094156 4
-22.320271 -22.475594 3.9264894 5
-18.9203 -13.878434 3.2162766 2
-22.540529 -22.536245 3.9435759 5
-23.56587 44.947868 7.3815012 7
-23.757349 46.081196 7.515233 7
-9.0435495 17.784445 3.6232545 2
-23.349684 45.689079 7.4500718 15
-23.448366 46.653934 7.5607982 24
-9.0487871 17.511896 3.5940032 9
-8.8711243 17.037142 3.5326262 9
-12.623012 25.861509 4.7003994 8
-11.976802 33.728706 5.5582385 8
-7.3991737 27.525455 4.6676207 9
-9.1214285 17.355343 3.581218 11
-6.6320305 19.495085 3.700372 3
-9.1452312 28.37612 4.8276787 2
-8.9309845 28.060263 4.7829304 22
-8.7011118 28.358068 4.8093653 18
-10.255272 29.329214 4.9811778 6
-13.431822 24.054701 4.5504856 16
-14.763701 29.873734 5.2551179 18
-6.0216742 20.42701 3.7861323 11
-6.3927369 21.369699 3.9095933 25
1.1652728 11.529061 2.5903623 23
0.51563734 2.207792 1.4422542 1
1.1065254 11.262569 2.5571268 16
-2.8919687 20.020308 3.6543181 9
-2.7853906 14.495664 2.9852915 20
-2.0483758 14.461676 2.965488 8
1.1530734 2.1154118 1.449838 2
-0.58626121 15.422818 3.0652602 39
-2.1090569 14.195819 2.9344435 37
2.0670371 4.713089 1.7892859 7
-0.33471751 11.901924 2.6323595 13
-1.1152829 15.318458 3.0566318 4
-0.22649324 11.394735 2.5696552 8
1.082487 2.0592508 1.4402225 1
-1.9872606 19.513464 3.5787275 8
-1.7054987 17.669666 3.350337 2
2.1790218 4.7130041 1.7943366 13
-0.97324198 16.231529 3.167006 18
-1.4164178 17.219767 3.2920592 33
2.2848871 4.69379 1.7971843 25
31.997206 14.98444 5.5214109 2
31.662712 15.223023 5.4965072 2
6.3832197 3.2570803 2.0232587 1
32.310402 18.832947 5.7772617 3
6.6186953 3.7315509 2.0774851 7
6.4210625 3.168607 2.0223451 1
30.837385 16.14805 5.4561934 2
31.838078 17.381344 5.6378627 5
30.869904 17.848434 5.5612612 5
6.3458152 2.7674646 1.9922552 1
30.946404 17.029078 5.5197186 2
6.1335311 2.5964861 1.9595081 30
4.8004003 3.4698842 1.8716004 1
5.8275619 4.4235973 2.044786 46
6.1993976 4.3945022 2.0792503 34
5.5267215 4.2399921 2.0014193 42
5.1543989 4.1952291 1.9623249 23
4.7246542 4.3913403 1.9394656 50
6.1125889 2.1671143 1.93706 48
5.0903678 4.4702358 1.9790367 46
15.72657 -10.62177 3.4911451 1
13.830551 -8.7005367 3.1634676 1
9.7331715 -7.0826535 2.63028 0
5.8723564 -3.3819866 1.975795 4
9.8840017 -6.9893632 2.6385584 8
5.8681183 -4.2008629 2.032109 1
8.9431648 -4.0213141 2.3506265 1
5.730866 -2.4752693 1.9077948 45
8.4213266 -5.3751011 2.3754272 8
8.3118753 -5.5467467 2.3759902 6
8.4236927 -5.4996877 2.3842082 5
8.6854868 -5.9811931 2.4448328 11
2.83552 -3.7324562 1.7258317 1
8.7313309 -5.0095005 2.3841937 6
3.2103684 -3.7864985 1.7585951 1
8.569006 -6.1605396 2.446116 0
8.5701818 -5.0686769 2.37078 6
10.038474 -6.7974272 2.6405032 3
3.9675026 -3.8404181 1.8251072 1
4.9419789 -4.8008122 1.9945935 45
-1.233108 -15.659957 3.1002254 5
0.2245229 -1.1243147 1.3085402 12
-1.1552881 -14.374884 2.9423783 0
0.89486867 -1.0365441 1.3156847 6
-3.2869234 -15.312436 3.0965056 8
2.7411752 -4.6339087 1.8151544 48
0.83876169 -1.0342094 1.3121841 1
-3.4670825 -13.890119 2.9324007 2
3.014322 -4.6723003 1.8358145 30
-2.8190484 -12.365327 2.7320588 6
-2.7340767 -12.392795 2.732924 26
-3.5151353 -12.20431 2.7353494 15
-3.2265744 -13.377212 2.8642771 25
-3.71262 -13.315207 2.8725309 24
-4.0146399 -13.30121 2.8815622 24
-2.0007825 -14.250135 2.9395854 8
-3.5380416 -12.428048 2.762373 15
-2.4956925 -12.551087 2.7454884 18
-2.8571184 -12.699707 2.7729537 20
-1.7342629 -13.49241 2.8429804 10
-27.152548 -22.861811 5.516315 17
-9.2648439 -9.918746 2.8496051 5
-34.486691 -44.473103 8.0506086 10
-29.345486 -30.035004 6.3078518 4
-33.99017 -43.525097 7.9221869 9
-34.667904 -44.067322 8.0249662 10
-9.3435822 -9.7247019 2.8392403 0
-15.310381 -20.124662 4.2752128 9
-14.118059 -18.725304 4.0515976 6
-19.925638 -14.166073 4.1732712 13
-22.975348 -9.8964844 4.2422476 1
-28.892975 -30.414841 6.3032079 4
-14.266198 -20.050638 4.1925173 13
-35.985626 -41.664539 7.8995161 9
-10.434977 -10.600956 3.0084057 7
-20.953526 -22.464211 4.9364371 4
-35.165829 -40.466736 7.723825 8
-27.33069 -34.066113 6.5148644 4
-8.9451857 -12.375867 3.0546546 7
-19.875549 -13.418294 4.1165433 9
-23.636045 43.667427 9.0201492 10
-24.283995 44.115005 9.1308155 20
-9.0144968 17.171322 4.251123 1
-24.835369 43.659344 9.1102495 10
-12.994371 22.933506 5.3491831 2
-9.161912 17.588032 4.3200269 3
-9.6503811 27.085468 5.7254124 18
-8.9139767 17.272703 4.2578492 17
-13.190182 23.084608 5.3851657 2
-12.983176 33.253868 6.8213515 11
-12.576041 32.883934 6.7437811 10
-9.6627932 26.830183 5.6881666 21
-7.0352621 18.973721 4.3815317 3
-8.1317062 17.824406 4.28128 19
-8.4961243 17.948931 4.3235679 12
-11.358118 26.743423 5.7734227 6
-7.9635553 19.918388 4.5737209 12
-13.612124 23.62492 5.4921193 2
-12.837303 25.634821 5.7129283 6
-9.2709799 15.640374 4.0611529 3
-4.3857975 23.164846 4.9062209 13
-7.3785028 26.416433 5.5156169 2
-6.9520173 25.963093 5.4286928 2
-2.996161 15.251172 3.6367519 8
1.1158612 10.80052 2.8861573 1
-4.9002252 23.578562 4.9864378 2
0.5193094 2.2441704 1.5269176 6
-0.65907145 10.934513 2.907145 1
-4.6582093 22.140802 4.7562623 4
-1.5262429 17.796627 4.0006852 12
-1.2429398 16.721001 3.8271968 2
-1.4010415 17.118416 3.8920171 9
-5.2930932 20.588573 4.5409818 15
-1.3780663 14.426275 3.4678578 19
-5.6325746 23.094198 4.9377413 15
1.095639 2.0934544 1.5240712 2
2.0872104 4.7635636 1.9767311 11
-5.7766047 20.660631 4.572134 16
-5.2849422 20.844591 4.5797853 12
-2.3092458 13.951713 3.4144688 11
31.714785 16.599592 6.84308 5
4.6625967 2.3691123 1.9586109 3
33.451946 19.490976 7.3094211 13
6.6312866 3.7362974 2.3399336 6
30.7453 16.904417 6.7295437 10
30.856667 17.106102 6.7606883 10
6.3234425 2.7042954 2.2205811 0
6.4275212 3.1424832 2.2657886 0
4.7145157 2.7227685 1.9940395 1
4.7809896 3.5038695 2.0739095 1
4.7665887 3.8013155 2.1020391 1
6.2439237 3.8471076 2.2964599 42
5.9817476 4.4178867 2.3148086 25
5.8032994 4.4327903 2.2938786 38
5.3286247 4.4665532 2.2393191 42
5.5482893 4.4400377 2.2631297 31
6.279285 4.3885698 2.3500049 51
4.862556 4.4949365 2.1879015 45
6.1050534 2.1621249 2.1554852 43
5.955462 1.6499002 2.107079 33
16.075668 -10.156197 4.1628094 1
5.8942661 -3.398247 2.211272 4
10.439015 -4.7675862 2.9561832 1
11.321796 -6.8738785 3.2407596 4
5.7553082 -2.4889181 2.1237445 43
9.3874817 -6.7289591 2.9714673 2
6.0067081 -4.2783079 2.3047018 1
9.1495724 -4.121707 2.7257504 1
8.822463 -5.4349914 2.7803288 1
8.4393549 -5.4324317 2.7287295 9
10.311143 -4.8787632 2.9453471 1
3.3681428 -3.7737443 1.9419996 2
9.7390032 -6.4471607 2.9914112 4
9.211524 -4.2264667 2.7418063 2
3.0740023 -3.7700968 1.9127536 1
8.5556755 -4.9089298 2.7001173 3
8.2856646 -5.9533391 2.7563441 2
3.5523667 -3.7801719 1.9616868 1
4.1868129 -3.8551571 2.0396507 0
5.2231603 -4.8240228 2.2659383 38
0.22269534 -1.1384357 1.3510015 4
-1.1314936 -14.584269 3.4894907 2
0.90854329 -1.0539771 1.36115 4
-5.4662466 -15.168172 3.7329907 8
-1.4882902 -15.900939 3.7023344 2
2.7438707 -4.6436162 2.0026724 41
0.85866314 -1.0665365 1.3591948 1
-3.8403418 -15.658394 3.7302353 4
-3.0259938 -12.782078 3.2580838 1
-3.5443091 -15.876612 3.7526057 9
-3.7353842 -15.704332 3.7332172 9
3.0081158 -4.6657825 2.0262401 9
-3.1346166 -13.580395 3.3846416 9
-2.7627802 -13.710363 3.3914857 4
-2.8539355 -13.669203 3.3882129 2
-3.1708121 -12.964304 3.2916501 6
-3.3411834 -12.87807 3.2854364 12
-1.536124 -14.522119 3.486351 2
-4.1578336 -12.002728 3.1927779 17
-3.7387431 -12.294849 3.21503 1
-10.832924 -11.530258 3.694453 1
-29.970701 -28.989269 7.7639723 7
-29.401396 -21.234093 6.9096341 11
-11.14156 -11.366874 3.7099211 15
-9.4751453 -6.0251455 2.9774981 5
-28.1759 -22.548159 6.8815508 17
-27.713167 -21.857832 6.7571158 10
-25.292946 -13.725048 5.7332859 9
-35.561295 -36.807564 9.2558746 10
-24.831675 -12.80733 5.6019607 9
-29.305281 -28.751581 7.6630168 7
-28.225183 -9.1665525 5.8746982 3
-26.684645 -9.405983 5.6578002 9
-10.27182 -10.215955 3.4853716 2
-10.828039 -7.1219325 3.2491567 9
-10.961012 -6.5108166 3.2167099 2
-14.817626 -18.261305 4.9041438 6
-26.585779 -17.30954 6.19594 16
-9.886548 -22.215832 5.0271044 4
-27.897995 -16.406246 6.2964821 4
-25.477158 48.226074 11.759223 10
-8.4590492 17.41626 4.9475961 3
-27.636148 22.965206 8.158452 4
-13.668311 23.907717 6.5321579 15
-24.948824 43.517136 10.910666 8
-11.257526 29.23534 7.2635803 3
-9.2372761 25.697598 6.4841261 7
-25.292873 44.465912 11.103206 9
-23.877844 44.488506 10.974914 8
-12.857975 25.904999 6.798614 2
-7.84902 16.638643 4.7604322 1
-24.658051 43.716339 10.916461 8
-11.029746 25.755627 6.6228909 5
-15.13399 3.5527341 4.2294965 1
-25.836803 5.915081 6.3424535 10
-7.5471048 23.366013 5.9498911 14
-10.940459 26.295401 6.7123189 11
-25.003139 44.68119 11.112051 9
-10.473516 26.197725 6.6603904 5
-5.1279993 14.516235 4.17553 3
3.1476209 40.735912 9.1108656 5
0.5229525 2.3856082 1.6354421 1
2.7169371 40.574715 9.0735569 5
1.1530131 23.809818 5.8017383 1
0.10176774 32.512836 7.4889517 3
0.11873614 15.202059 4.1246042 7
0.32879481 32.144497 7.4175725 3
-6.9895277 24.773325 6.1789455 6
1.846388 40.078461 8.9676371 5
0.061119165 15.460346 4.1748824 6
-3.8297532 14.266278 4.0516396 7
-6.9780684 24.129177 6.0583854 4
0.54350376 32.377373 7.4633164 10
0.4048894 23.877066 5.8108659 6
0.056337621 26.092339 6.2411203 2
0.77183247 32.129585 7.4159784 3
1.1441512 29.360918 6.880064 11
-6.1160207 21.554916 5.5323958 12
-0.059480671 14.073202 3.9056807 1
1.0838025 2.0601888 1.5974046 2
4.6650295 2.7121615 2.1704817 2
4.6349978 2.2940118 2.124649 1
6.2734365 4.3192325 2.6072564 4
4.6716933 3.1778357 2.2223828 1
6.2361164 3.7824149 2.5423338 24
6.2260418 3.6324303 2.5251482 32
6.1780801 3.1707914 2.4720373 37
6.1624084 2.9815464 2.4521725 39
4.5452886 4.3883634 2.3591604 7
4.1213155 3.9191878 2.2356231 0
5.8652024 1.9401733 2.3185422 11
4.2297006 3.7606814 2.2289274 1
6.0972323 2.1581829 2.3757632 39
4.6310487 3.8418014 2.2974842 0
4.2877021 4.415832 2.3286076 39
5.9378653 1.6437747 2.3144646 13
4.7239385 3.3828087 2.2545166 1
4.2386227 4.547677 2.3415027 39
3.5863881 -3.8217967 2.1509862 0
3.7693119 -3.818136 2.1741705 0
5.4530778 -4.7781873 2.5397534 34
4.3726096 -3.8498156 2.2613645 0
4.5812945 -4.753613 2.416266 11
3.9451678 -3.8214407 2.198107 0
4.2136712 -4.7249789 2.364933 27
4.1363459 -3.832972 2.225884 0
4.2636909 -4.2170196 2.2970729 0
5.9420896 -2.6235795 2.3828688 3
5.7408853 -2.4835906 2.3356109 32
5.6622849 -1.4793898 2.2538004 28
5.7814908 -1.9934139 2.3066614 27
3.8497097 -4.6002941 2.3013916 23
4.1567683 -4.0157061 2.2541597 0
3.5717614 -4.5902476 2.2673726 25
5.6119776 -1.7648171 2.2605965 10
-14.549629 -36.240322 8.7618065 10
-13.597712 -34.262146 8.3373756 13
-2.153353 -24.703165 5.9925508 6
0.21931469 -1.1705116 1.398435 1
-4.8074269 -13.032171 3.8850431 1
-2.4727755 -15.382355 4.2051196 11
-4.424149 -12.184896 3.7051222 3
-2.8748522 -13.323715 3.8289332 4
