# .PCD v0.7 - Point Cloud Data file format
VERSION 0.7
FIELDS x y z intensity
SIZE 4 4 4 4
TYPE F F F F
COUNT 1 1 1 1
WIDTH 1325
HEIGHT 1
VIEWPOINT 0 0 0 1 0 0 0
POINTS 1325
DATA ascii
-0.1868622 0.28456932 0.34156805 0
-0.19451851 0.28603154 0.33521309 0
-0.19712579 0.28610304 0.33335903 0
-0.20325346 0.28623945 0.32805887 0
-0.21028547 0.28666043 0.32176319 0
-0.21506998 0.28696117 0.31826395 0
-0.22455072 0.28778917 0.31069297 0
-0.24083096 0.28797486 0.29661489 0
-0.25320303 0.28878391 0.28612021 0
-0.25573611 0.29064259 0.28404 0
-0.013210036 0.27444348 0.4821716 0
-0.020711824 0.27360746 0.47847965 0
-0.025604706 0.27456152 0.47311351 0
-0.029612444 0.27571031 0.46960944 0
-0.030672327 0.27502194 0.46837631 0
-0.033604398 0.27607664 0.46620339 0
-0.03526422 0.27463308 0.46400586 0
-0.037500799 0.27523503 0.46314001 0
-0.051676046 0.27579445 0.45174736 0
-0.058846358 0.27767417 0.4461098 0
-0.065285362 0.27703404 0.43973151 0
-0.078764588 0.27926391 0.42947826 0
-0.080217771 0.27944377 0.428404 0
-0.10056233 0.27925265 0.41114271 0
-0.10249414 0.28000417 0.40994915 0
-0.10574529 0.27966118 0.40670615 0
-0.12825565 0.28182307 0.38974312 0
-0.13723207 0.28307796 0.38216543 0
-0.14606203 0.28394103 0.37550125 0
-0.14884783 0.28304517 0.3729206 0
-0.17829248 0.28547996 0.34877518 0
-0.18030278 0.28676292 0.34653318 0
-0.19824144 0.28815499 0.33162433 0
-0.20184061 0.28720972 0.32919556 0
-0.22125301 0.28847855 0.31298405 0
-0.22470447 0.28953525 0.31103474 0
-0.27604815 0.29402986 0.2674228 0
-0.013089545 0.27562791 0.48336327 0
-0.022078626 0.27558339 0.47611216 0
-0.068542972 0.28004593 0.43807086 0
-0.075578026 0.28048208 0.43221202 0
-0.090111405 0.28167394 0.42058837 0
-0.12700266 0.2838794 0.39161485 0
-0.13049769 0.28500932 0.38834134 0
-0.1317037 0.28400198 0.38742623 0
-0.15021457 0.28591713 0.37216964 0
-0.15275444 0.28654566 0.36987859 0
-0.15635137 0.28521946 0.36705163 0
-0.20830217 0.29033414 0.32353455 0
-0.22056293 0.29131168 0.3136597 0
-0.22455166 0.29129541 0.31094852 0
-0.2478853 0.29290235 0.29043174 0
-0.27093261 0.29565686 0.27079138 0
-0.27363685 0.29410097 0.26914775 0
-0.00053680316 0.27592173 0.49408591 0
-0.02201055 0.27734366 0.47610718 0
-0.02668586 0.27905092 0.47282952 0
-0.055885889 0.27954969 0.44868901 0
-0.058794249 0.28083265 0.44595686 0
-0.092716768 0.28321925 0.41888699 0
-0.10323718 0.28326046 0.41018429 0
-0.10637588 0.28454843 0.4084439 0
-0.12182981 0.28543723 0.39532262 0
-0.1320233 0.28572097 0.38747466 0
-0.13307221 0.28670016 0.38652414 0
-0.15983936 0.28754357 0.36400217 0
-0.16360611 0.28848124 0.36088344 0
-0.16730122 0.28787503 0.35795024 0
-0.16989866 0.28802174 0.35552275 0
-0.19346888 0.2898061 0.33628392 0
-0.20700714 0.29116383 0.32485929 0
-0.25601062 0.29491788 0.28349948 0
-0.25726724 0.29493147 0.28240147 0
-0.27696928 0.29680523 0.26640886 0
0.0095236227 0.27803382 0.50300425 0
0.0031174347 0.27751917 0.49688229 0
0.004074946 0.27689865 0.4978393 0
-0.013274271 0.27813882 0.48368534 0
-0.014243603 0.27916682 0.48263431 0
-0.045405932 0.28116816 0.45675856 0
-0.055311225 0.2823272 0.44973534 0
-0.060060114 0.28338325 0.44566917 0
-0.079944223 0.28334415 0.42944369 0
-0.082615927 0.28404215 0.42753974 0
-0.11471612 0.28739509 0.40130723 0
-0.11691238 0.28768101 0.39941376 0
-0.12012529 0.2871581 0.39694762 0
-0.12160592 0.2879273 0.3961435 0
-0.15487409 0.29016602 0.36819622 0
-0.15888819 0.29011342 0.3650153 0
-0.16342655 0.29021055 0.36099726 0
-0.17483619 0.29157692 0.35163173 0
-0.18208699 0.29162458 0.34525058 0
-0.22444041 0.29450822 0.31059104 0
-0.23141038 0.2953409 0.30419108 0
-0.23672891 0.29533446 0.29969105 0
-0.24624802 0.29622295 0.29144993 0
-0.2500298 0.2971049 0.28919658 0
-0.27716991 0.29863679 0.26627237 0
0.038755633 0.27744034 0.52395117 0
0.023737844 0.27722889 0.51366001 0
0.018137813 0.27908781 0.50963056 0
0.010696106 0.27893803 0.50391811 0
-0.027012873 0.28258517 0.47291294 0
-0.044550188 0.28234503 0.45804995 0
-0.047264412 0.28373805 0.45617864 0
-0.045959536 0.28304994 0.45712996 0
-0.059173983 0.28459525 0.44656229 0
-0.10332038 0.28779575 0.41068792 0
-0.15989259 0.29101646 0.36381197 0
-0.17335425 0.29237354 0.35258007 0
-0.19938037 0.2944352 0.33093163 0
-0.20946473 0.29547602 0.32280156 0
-0.2081645 0.29625866 0.32351151 0
-0.21519119 0.29566571 0.3176308 0
-0.25200665 0.29866216 0.2867921 0
-0.27424937 0.30040735 0.26828322 0
-0.27588862 0.3013455 0.26718476 0
0.014005914 0.28126851 0.50680691 0
-0.0034985393 0.28146818 0.49206367 0
-0.017989423 0.28266165 0.47972879 0
-0.029427251 0.28408986 0.47094411 0
-0.035328798 0.28465024 0.46523613 0
-0.046513245 0.28475809 0.45719221 0
-0.049238503 0.28570187 0.45529315 0
-0.050294839 0.28459409 0.45436707 0
-0.063616335 0.28683922 0.44383329 0
-0.08834888 0.2876994 0.42327872 0
-0.090841055 0.287916 0.4213526 0
-0.12937783 0.2909075 0.38927531 0
-0.13848254 0.29276299 0.38172105 0
-0.15412045 0.2936919 0.36896124 0
-0.16078287 0.29381695 0.36279881 0
-0.18869166 0.29631469 0.34023324 0
-0.19810605 0.29716092 0.33185697 0
-0.24891528 0.29988852 0.28964019 0
-0.25457335 0.30054179 0.2845279 0
-0.25591224 0.30136949 0.28371903 0
-0.27713478 0.30215594 0.2662577 0
0.051936783 0.28003606 0.53655827 0
0.030465946 0.28102738 0.52006865 0
0.016366307 0.28147623 0.50869733 0
0.0033020526 0.28344223 0.49794513 0
-0.050593156 0.28630984 0.45434442 0
-0.082671963 0.28889319 0.42797965 0
-0.097647578 0.28990823 0.41513628 0
-0.1441287 0.29462597 0.37713379 0
-0.14965901 0.29537949 0.37237957 0
-0.16065368 0.29543835 0.36296934 0
-0.1994461 0.29791889 0.33090946 0
-0.21033414 0.30000004 0.32167473 0
-0.21420406 0.2992928 0.31805062 0
-0.23230223 0.30098382 0.3036598 0
-0.23406607 0.30156234 0.30194452 0
-0.24743682 0.30243936 0.29102877 0
-0.2499335 0.30271581 0.28867826 0
-0.2557897 0.30313423 0.28355378 0
-0.26399109 0.30378532 0.27680066 0
0.068494678 0.2807734 0.54982179 0
0.060885452 0.28097826 0.54496807 0
0.050788753 0.28052017 0.53546739 0
0.045272857 0.28182137 0.5312376 0
0.026874818 0.28351188 0.51717472 0
-0.0050875135 0.28585503 0.49107084 0
-0.016457248 0.2868433 0.48223805 0
-0.056109667 0.28989697 0.45028812 0
-0.082211196 0.2916075 0.42826465 0
-0.10138384 0.29304841 0.41228154 0
-0.10366765 0.29317263 0.41032422 0
-0.11584921 0.29399085 0.4003239 0
-0.1179695 0.29381227 0.39846855 0
-0.16047356 0.29719919 0.36297897 0
-0.16184565 0.29811537 0.36189973 0
-0.18119897 0.30003038 0.34588087 0
-0.19652081 0.30034554 0.33333108 0
-0.22119904 0.30268407 0.31258899 0
-0.23668393 0.30323181 0.2996785 0
-0.23916057 0.30308348 0.29775918 0
-0.24847144 0.30508316 0.28939784 0
-0.26910233 0.30608734 0.27241048 0
-0.27535856 0.30658209 0.26706791 0
0.059603713 0.28195089 0.54368925 0
0.058220156 0.28275073 0.54254371 0
0.037994068 0.2832292 0.52612072 0
0.03613086 0.28347501 0.52493244 0
0.030170426 0.28443876 0.52015358 0
0.026286267 0.2853533 0.51670337 0
0.021319024 0.28529045 0.51302755 0
0.022711173 0.28468239 0.5139432 0
0.017425828 0.28470269 0.50974888 0
-0.035456024 0.28967166 0.46762347 0
-0.048169211 0.29030335 0.45673379 0
-0.094515033 0.2942456 0.41812974 0
-0.11359439 0.29578233 0.40244275 0
-0.11571136 0.29575107 0.40024668 0
-0.11469657 0.2948893 0.40130174 0
-0.13249961 0.29681107 0.38661787 0
-0.15056604 0.29809478 0.37133598 0
-0.15176412 0.29897106 0.37052137 0
-0.16204476 0.29903284 0.3617388 0
-0.16491865 0.29890314 0.35945565 0
-0.16754478 0.30083373 0.35742635 0
-0.17753732 0.30076456 0.34883052 0
-0.18114477 0.30176568 0.34588301 0
-0.18511976 0.30090752 0.34237197 0
-0.18630533 0.30173978 0.34135151 0
-0.18766227 0.30082551 0.34056446 0
-0.19508909 0.30292162 0.33420563 0
-0.22018614 0.30358136 0.31364426 0
-0.22502521 0.30535111 0.30958983 0
-0.25471967 0.30766538 0.28473485 0
-0.25813207 0.30679482 0.28170204 0
-0.26036865 0.30652079 0.27964753 0
-0.2655749 0.30694228 0.27543199 0
-0.27906129 0.30940565 0.26408365 0
-0.2788603 0.30937684 0.26435217 0
0.055949502 0.28420487 0.54054666 0
0.052108176 0.2843096 0.5376994 0
0.050681539 0.28533235 0.53658181 0
0.037943989 0.2849791 0.52611411 0
0.03803635 0.28500065 0.52616167 0
0.033010475 0.28615281 0.52252901 0
0.031522114 0.28635359 0.52145582 0
0.027570419 0.28646544 0.51813078 0
0.022230558 0.28664485 0.51399982 0
0.021227084 0.28773358 0.51372772 0
0.01230523 0.28824699 0.50641644 0
-0.0020070896 0.28847975 0.49479294 0
-0.026262879 0.28985348 0.47497031 0
-0.042496644 0.29191065 0.46173772 0
-0.050384887 0.29311848 0.45468381 0
-0.056556728 0.29330283 0.44979751 0
-0.062226653 0.29268885 0.44505271 0
-0.072279826 0.2950308 0.43612099 0
-0.074812174 0.2952837 0.43428075 0
-0.077548049 0.29545572 0.43183663 0
-0.082217708 0.29516056 0.42827496 0
-0.086967722 0.29547673 0.42423156 0
-0.085887596 0.29446045 0.42532814 0
-0.090516791 0.29505816 0.42129394 0
-0.09762603 0.29699042 0.41511986 0
-0.12749314 0.29813024 0.39051732 0
-0.15738285 0.30169633 0.36557171 0
-0.16727433 0.30244547 0.35736144 0
-0.18108171 0.30353194 0.34587601 0
-0.19113806 0.30368412 0.33760828 0
-0.2092014 0.30581307 0.32276514 0
-0.21346247 0.30533594 0.31908208 0
-0.21900713 0.30656019 0.31448165 0
-0.23332688 0.30778441 0.30275413 0
-0.255739 0.30880201 0.28385139 0
-0.26443794 0.3096669 0.27625376 0
0.081628479 0.28459197 0.56222397 0
0.066556036 0.28495249 0.55015719 0
0.064949811 0.28580561 0.54883403 0
0.014762342 0.28873214 0.50830525 0
0.014803953 0.28855115 0.50849503 0
0.010585897 0.28896445 0.50545037 0
-0.022834074 0.2924349 0.47795048 0
-0.025243577 0.29243249 0.47596824 0
-0.028795436 0.29322109 0.47285557 0
-0.039956957 0.2935707 0.46375036 0
-0.038884237 0.29272097 0.46476421 0
-0.077521071 0.29698762 0.43198487 0
-0.079942986 0.29735664 0.43008277 0
-0.08676032 0.29721206 0.42433223 0
-0.095203802 0.29870969 0.4170596 0
-0.11467392 0.30005538 0.40127894 0
-0.12827963 0.30053458 0.38957983 0
-0.13932779 0.30091083 0.38071111 0
-0.1457009 0.30111304 0.37535641 0
-0.15959424 0.30368549 0.36353481 0
-0.19453317 0.30643535 0.33410934 0
-0.19709876 0.30672687 0.33243006 0
-0.21340454 0.30709493 0.31903213 0
-0.21664429 0.30691212 0.31641337 0
-0.24030551 0.30920157 0.29685527 0
-0.24856871 0.31043553 0.28931534 0
-0.24978907 0.30934057 0.28849778 0
-0.26580027 0.3122507 0.27527124 0
-0.26685709 0.31139618 0.27460387 0
0.059282225 0.28831613 0.54397047 0
0.05774885 0.28691363 0.54227442 0
0.0546466 0.28869951 0.54028547 0
0.038386226 0.28891918 0.5275771 0
0.023714587 0.29001793 0.5164423 0
0.012906976 0.29106149 0.50762355 0
-0.016608138 0.29369056 0.48319638 0
-0.022669896 0.29435778 0.47799042 0
-0.051633485 0.29676923 0.45380056 0
-0.064793393 0.29803374 0.44262117 0
-0.085555241 0.2998046 0.42527246 0
-0.085541859 0.29987073 0.42528707 0
-0.092230141 0.30038205 0.41919976 0
-0.096350752 0.29959121 0.41607285 0
-0.10780874 0.30014646 0.40670258 0
-0.14345497 0.30306166 0.37770355 0
-0.15153584 0.30467302 0.3701092 0
-0.150682 0.30362716 0.37126869 0
-0.1506615 0.30396596 0.37121195 0
-0.16210851 0.30425629 0.36166593 0
-0.1681174 0.30529723 0.35615993 0
-0.17077845 0.30535883 0.35436705 0
-0.22265798 0.31067199 0.31148475 0
-0.22136982 0.30989781 0.31244752 0
-0.24062352 0.31124827 0.29624009 0
-0.25582716 0.31199074 0.28365374 0
-0.28001142 0.31391573 0.26301718 0
0.060144797 0.289296 0.54546392 0
0.053295579 0.28929734 0.53930575 0
0.038997404 0.29022011 0.52868766 0
0.024248749 0.29160765 0.51756179 0
0.02090954 0.29149878 0.51460886 0
0.01735957 0.2916967 0.51158023 0
0.016095854 0.29233685 0.510589 0
-0.02619525 0.29533222 0.47504172 0
-0.044614732 0.2970756 0.45975372 0
-0.045613475 0.29800069 0.45876026 0
-0.070616469 0.29875743 0.43772706 0
-0.083264232 0.29979193 0.42714721 0
-0.093387954 0.30233225 0.41853672 0
-0.1044471 0.30205426 0.40921733 0
-0.13911799 0.30537271 0.38049719 0
-0.1492005 0.30641782 0.37201807 0
-0.15153745 0.30639526 0.37015861 0
-0.16320387 0.30673796 0.36023811 0
-0.2002598 0.30944413 0.33014655 0
-0.20402184 0.31062979 0.32662359 0
-0.20297781 0.30959752 0.32754841 0
-0.20965621 0.31003702 0.32208848 0
-0.20907068 0.3112312 0.3224667 0
-0.22356212 0.31145272 0.31053272 0
-0.24612156 0.31369942 0.29116532 0
-0.27519774 0.3156912 0.26692897 0
0.083837032 0.28974944 0.56516623 0
0.082820043 0.28882444 0.56416804 0
0.073833436 0.29032841 0.55721426 0
0.072131723 0.2899535 0.55635846 0
0.060920812 0.29112473 0.54679537 0
0.038673766 0.2927866 0.52922994 0
0.034995273 0.29288071 0.52634722 0
0.026022062 0.29360273 0.51877916 0
0.022170469 0.29300207 0.51567036 0
0.023230255 0.29445088 0.51659173 0
0.020661347 0.29323417 0.51467907 0
-0.028664365 0.29726204 0.47292897 0
-0.040050484 0.29881927 0.46371043 0
-0.042092986 0.29888502 0.46165565 0
-0.046733003 0.29878747 0.45779091 0
-0.048007295 0.29959327 0.45654193 0
-0.07517533 0.30236158 0.43391958 0
-0.078443669 0.30142704 0.43097565 0
-0.08314833 0.30166137 0.42712852 0
-0.098466083 0.30300754 0.41417855 0
-0.10674316 0.30379462 0.40729201 0
-0.12273896 0.30595955 0.39420912 0
-0.12721835 0.30663481 0.39058301 0
-0.13823333 0.30648792 0.38143882 0
-0.14266495 0.3072741 0.37756097 0
-0.14841582 0.30727866 0.37297529 0
-0.17722814 0.30929944 0.34873092 0
-0.17557745 0.31086385 0.34990984 0
-0.18407589 0.31123251 0.34311309 0
-0.1954084 0.31105432 0.33376908 0
-0.20019141 0.31151015 0.32968304 0
-0.21273077 0.31238455 0.31919459 0
-0.21153532 0.31326631 0.32040441 0
-0.21626984 0.31364253 0.31636858 0
-0.22019944 0.31432787 0.3133097 0
-0.2222054 0.31423613 0.31134453 0
-0.23889087 0.31546113 0.29722753 0
-0.26184583 0.31715021 0.2782582 0
0.057092011 0.29279667 0.54459321 0
0.04991132 0.29315531 0.53916234 0
0.045764446 0.29420644 0.53502619 0
0.028088272 0.29547274 0.5201512 0
-0.012771953 0.29860306 0.48646566 0
-0.028620955 0.2990129 0.47286105 0
-0.032967918 0.30098253 0.46920112 0
-0.042145025 0.30062181 0.46165013 0
-0.055989597 0.30227575 0.44990495 0
-0.057109099 0.30125093 0.44881365 0
-0.076176316 0.30329773 0.43292415 0
-0.077355504 0.30397022 0.43194655 0
-0.10419534 0.30569646 0.40923235 0
-0.11248776 0.30644968 0.402596 0
-0.11927143 0.30692357 0.39709225 0
-0.13296291 0.30774018 0.38556376 0
-0.13673812 0.30951712 0.38209188 0
-0.14711839 0.30989289 0.37380213 0
-0.19651428 0.31371677 0.33271226 0
-0.21771917 0.3159861 0.31540748 0
-0.23169833 0.31722602 0.30355477 0
-0.23174933 0.31548098 0.30360371 0
-0.23765972 0.31656891 0.29862201 0
-0.25236085 0.31821945 0.28604665 0
-0.26423386 0.31859618 0.27630156 0
-0.27539912 0.31919557 0.26674211 0
0.069279738 0.29318613 0.55451143 0
0.056928337 0.2944946 0.54449928 0
0.042935655 0.29634658 0.53286469 0
0.029293872 0.29634702 0.52105999 0
0.0074715354 0.29941913 0.50339514 0
0.00076472387 0.29964903 0.49743736 0
-0.013937518 0.299521 0.48536381 0
-0.030367088 0.30259919 0.47108072 0
-0.042072475 0.30236596 0.4616152 0
-0.040958874 0.30326834 0.4626222 0
-0.049489457 0.30250099 0.45585215 0
-0.051248547 0.30259055 0.45373526 0
-0.056160089 0.30398911 0.44969797 0
-0.05607805 0.30407971 0.44975725 0
-0.054946959 0.30338204 0.45073211 0
-0.068006396 0.30423865 0.43969944 0
-0.080648914 0.30511397 0.42907032 0
-0.087679744 0.30678353 0.42329338 0
-0.088849738 0.30610886 0.42228547 0
-0.095347211 0.30787346 0.41649231 0
-0.11924855 0.3087568 0.39711404 0
-0.13415781 0.31052399 0.38463968 0
-0.1528175 0.31247491 0.36886141 0
-0.15207875 0.3109515 0.36940756 0
-0.15684929 0.31232047 0.36533195 0
-0.16589679 0.313389 0.35813141 0
-0.16957326 0.31299657 0.35534906 0
-0.18532561 0.31396651 0.34187645 0
-0.19159523 0.31560731 0.33656615 0
-0.25650603 0.32000747 0.28290096 0
-0.27537683 0.32094446 0.2671043 0
0.071624957 0.29565099 0.5566377 0
0.041328296 0.29802454 0.53151733 0
0.037801631 0.29828936 0.52844816 0
0.030537479 0.29887137 0.52214742 0
-0.0089193061 0.30217206 0.48942459 0
-0.081969656 0.30752492 0.42808747 0
-0.098876551 0.30870777 0.41331342 0
-0.10045893 0.30922997 0.41240889 0
-0.10981082 0.3095769 0.40451786 0
-0.11786333 0.31124792 0.39804116 0
-0.12374642 0.31061274 0.39321607 0
-0.15270318 0.31423119 0.36861625 0
-0.17221968 0.31553727 0.35273287 0
-0.17344308 0.31462377 0.35181132 0
-0.17697753 0.31558597 0.34881774 0
-0.20998336 0.31750295 0.32151031 0
-0.21077348 0.31933594 0.32091662 0
-0.21973321 0.31929937 0.31322736 0
-0.23034769 0.31975132 0.3043499 0
-0.25181067 0.32120964 0.28664002 0
-0.26668251 0.32370186 0.27395386 0
-0.26799947 0.32343248 0.27270246 0
-0.27778357 0.32450503 0.26468819 0
0.081472404 0.29561916 0.56475049 0
0.076407954 0.29603496 0.56048054 0
0.066776447 0.29700983 0.55241543 0
0.02462434 0.30030721 0.51753914 0
0.0065918937 0.30214742 0.50212228 0
0.0042336732 0.30232102 0.50029498 0
-0.0066144541 0.30395785 0.49136636 0
-0.0098518692 0.30305612 0.48837212 0
-0.02700929 0.30541539 0.47406802 0
-0.044297814 0.30599052 0.45966521 0
-0.048652809 0.30775172 0.45571128 0
-0.047659669 0.30695656 0.45670807 0
-0.05024695 0.30722302 0.45462599 0
-0.070014484 0.30782557 0.43784088 0
-0.084201954 0.3094745 0.42615286 0
-0.1237285 0.31237507 0.39286122 0
-0.13804603 0.31371775 0.38103214 0
-0.15041277 0.31612426 0.3704285 0
-0.15289828 0.31631202 0.36832544 0
-0.16994417 0.31725734 0.35436401 0
-0.17256707 0.31725141 0.35284144 0
-0.18814602 0.31824625 0.33921808 0
-0.19382837 0.31911683 0.3345978 0
-0.19652921 0.31912577 0.33249533 0
-0.20012933 0.32005599 0.32956916 0
-0.22289398 0.32124293 0.31102073 0
-0.2282635 0.32158139 0.30632016 0
-0.23570311 0.32193494 0.30006403 0
-0.26320225 0.32405841 0.27692497 0
0.067961343 0.29976907 0.55331576 0
0.04764042 0.29985446 0.53674412 0
0.032977365 0.30214021 0.52437937 0
0.023343153 0.30276388 0.51647389 0
0.020874459 0.30369943 0.51411712 0
0.0010477044 0.30508849 0.49728233 0
-0.0061776526 0.30427739 0.49132735 0
-0.015864927 0.30670092 0.48303512 0
-0.02618397 0.30757675 0.4746846 0
-0.02825411 0.30631429 0.47301751 0
-0.03717953 0.30849728 0.465211 0
-0.051320203 0.30815589 0.45363876 0
-0.059142068 0.30939618 0.44702244 0
-0.071401544 0.30989996 0.43659899 0
-0.080416501 0.31184745 0.42895597 0
-0.092104472 0.31200597 0.41923335 0
-0.097987399 0.31310612 0.41406962 0
-0.11752157 0.31475869 0.39789855 0
-0.13441637 0.31586161 0.38414386 0
-0.13702008 0.31630868 0.38199294 0
-0.14681527 0.31728047 0.3738423 0
-0.15025443 0.31801566 0.37096953 0
-0.15257674 0.31804183 0.36842978 0
-0.15823072 0.31828853 0.3644096 0
-0.16997421 0.31900999 0.35430539 0
-0.1977354 0.32173452 0.3315852 0
-0.2264927 0.32420221 0.30727342 0
-0.23534052 0.32366598 0.30018526 0
-0.24086757 0.32495114 0.29554549 0
-0.25394541 0.326471 0.28476751 0
0.073818348 0.29959828 0.55877107 0
0.057287261 0.30150235 0.54413617 0
0.039164878 0.30247498 0.52927411 0
0.031999514 0.30330232 0.5233627 0
0.0030931756 0.30677161 0.49908337 0
-0.011942353 0.30656859 0.48648623 0
-0.01306593 0.30793357 0.48555204 0
-0.029141499 0.30889395 0.4720374 0
-0.050872643 0.31035829 0.45376435 0
-0.053280883 0.31029129 0.45184535 0
-0.058017071 0.31039342 0.44798493 0
-0.10266462 0.31504285 0.41028586 0
-0.12724006 0.3168897 0.3901279 0
-0.13437727 0.31760368 0.38412306 0
-0.14150967 0.31780741 0.37806571 0
-0.16733085 0.32079223 0.35627508 0
-0.16614066 0.32004589 0.35728598 0
-0.19271636 0.32233137 0.3354122 0
-0.20353064 0.32318279 0.32678238 0
-0.21165553 0.32405716 0.31983691 0
-0.21439955 0.3235516 0.31766719 0
-0.24040818 0.32566997 0.2965464 0
-0.2618928 0.32845289 0.27777189 0
0.038110942 0.30522099 0.52829772 0
0.033612683 0.30562779 0.5243789 0
0.024313968 0.30594444 0.51641095 0
0.019093767 0.30703872 0.51235819 0
0.0083123371 0.30822027 0.50331855 0
0.0069706663 0.30760884 0.50229192 0
-0.015437763 0.30975243 0.48357654 0
-0.016600966 0.30878314 0.48264608 0
-0.02028003 0.31001356 0.47960463 0
-0.028146837 0.30971575 0.47302717 0
-0.054305628 0.31296024 0.45083329 0
-0.08033441 0.31535926 0.42904317 0
-0.089578204 0.31575614 0.42127061 0
-0.10375119 0.31754482 0.40912783 0
-0.11528213 0.31812683 0.39995965 0
-0.12943211 0.31912747 0.38819268 0
-0.14669596 0.32076094 0.3738305 0
-0.15504698 0.32165685 0.36656061 0
-0.16850242 0.32332763 0.35546514 0
-0.16836815 0.32158279 0.3555994 0
-0.18000138 0.32386184 0.34592208 0
-0.18424708 0.32310769 0.34262836 0
-0.2456083 0.32930112 0.29163381 0
-0.27479661 0.33130133 0.26737481 0
-0.28082684 0.33121893 0.26162842 0
0.079098061 0.30295649 0.56244445 0
0.076490074 0.3027927 0.56033564 0
0.074712574 0.30358365 0.55850929 0
0.060198016 0.30574942 0.54664671 0
0.05748076 0.3056151 0.54412001 0
-0.011679221 0.31183845 0.48643014 0
-0.017693218 0.31154248 0.48155379 0
-0.023731269 0.31111771 0.47654215 0
-0.026697978 0.31246379 0.47387585 0
-0.031241324 0.31272158 0.46999604 0
-0.037053943 0.3137846 0.46515623 0
-0.059036843 0.31473532 0.44695547 0
-0.060228903 0.315658 0.44601569 0
-0.067038648 0.31631342 0.44024006 0
-0.070909254 0.31687158 0.4367106 0
-0.091843531 0.31774032 0.41928095 0
-0.094122142 0.31810269 0.41733536 0
-0.11079864 0.31917477 0.40323314 0
-0.10963812 0.32010326 0.40421179 0
-0.11847117 0.31942385 0.39688033 0
-0.13169825 0.32120678 0.38602957 0
-0.14217582 0.32229197 0.37727749 0
-0.16446713 0.32361907 0.35838082 0
-0.17873909 0.32532647 0.34686375 0
-0.18163189 0.32507616 0.34445724 0
-0.19065857 0.3262344 0.33699515 0
-0.19215976 0.32714137 0.33555439 0
-0.19845772 0.32646394 0.33041885 0
-0.20198193 0.32753822 0.3276377 0
-0.2140606 0.32729089 0.31785345 0
-0.2201753 0.32808989 0.31304592 0
-0.22511953 0.32938465 0.30867118 0
-0.2354942 0.33039859 0.29979715 0
-0.23932728 0.33018121 0.29672346 0
-0.27237836 0.33274198 0.26920488 0
0.066223726 0.30648205 0.55165291 0
0.061481573 0.30669919 0.54760283 0
0.039587945 0.30774233 0.5291934 0
-0.014226984 0.31218255 0.48444855 0
-0.016492285 0.31242317 0.48254552 0
-0.015323952 0.3131564 0.48347619 0
-0.025780182 0.31335264 0.47433048 0
-0.040396631 0.31482694 0.46225271 0
-0.047923494 0.31609458 0.45628831 0
-0.050229464 0.31611222 0.45421755 0
-0.057673771 0.31735662 0.447934 0
-0.07338199 0.31869337 0.43479845 0
-0.080222666 0.31883273 0.42903647 0
-0.079094857 0.31797984 0.42958015 0
-0.095296808 0.32067609 0.41632524 0
-0.1026177 0.32022002 0.41005489 0
-0.11195756 0.32187414 0.40220433 0
-0.13763146 0.32367659 0.38123211 0
-0.15111813 0.3244189 0.36987138 0
-0.18720777 0.32742611 0.33961323 0
-0.20646909 0.32922328 0.32375664 0
-0.21255994 0.33006939 0.31895781 0
-0.22384802 0.33024812 0.30956182 0
-0.23797661 0.33293641 0.29748836 0
-0.25018871 0.33312854 0.28749734 0
-0.25278032 0.33277401 0.28563133 0
0.055881999 0.30941391 0.54252613 0
0.03865426 0.31061104 0.52825803 0
0.038645778 0.31061608 0.52827007 0
0.029016107 0.31129286 0.52037829 0
0.02804932 0.3106811 0.51939344 0
-0.0031481013 0.31331462 0.49336761 0
-0.012744009 0.31474814 0.48538902 0
-0.016377062 0.31417748 0.48251238 0
-0.036826193 0.31729558 0.46516898 0
-0.040357951 0.31678286 0.46198979 0
-0.053621706 0.31742525 0.45128277 0
-0.069159865 0.31978905 0.43820849 0
-0.072116636 0.31954902 0.43573108 0
-0.09884128 0.3226369 0.41305274 0
-0.097865462 0.32176477 0.41407201 0
-0.10466415 0.32205334 0.40811524 0
-0.10854081 0.32281217 0.40512478 0
-0.12211603 0.32367995 0.39373967 0
-0.12586489 0.32481578 0.39082992 0
-0.13280655 0.32550925 0.38497758 0
-0.16384262 0.32716838 0.35913709 0
-0.16636594 0.32724115 0.35727477 0
-0.20544775 0.3319189 0.32466891 0
-0.20914966 0.33113146 0.3218866 0
-0.23709071 0.3331778 0.29868138 0
-0.27321041 0.33736634 0.26829848 0
0.090580851 0.30836186 0.56486475 0
0.082462355 0.30883029 0.56534147 0
0.076319709 0.30813003 0.56011754 0
0.072805054 0.30919579 0.55681539 0
0.069848076 0.30893639 0.5544641 0
0.048755877 0.31059572 0.53647101 0
0.045719888 0.31080133 0.53437251 0
0.037370726 0.31138709 0.5272702 0
0.018582705 0.31366619 0.51141572 0
-0.011400905 0.31715581 0.48645967 0
-0.042577125 0.31858772 0.46029684 0
-0.07308495 0.32218349 0.43477699 0
-0.077941842 0.3223266 0.43081379 0
-0.087057337 0.32316202 0.42304665 0
-0.089326046 0.32285097 0.42120641 0
-0.10848975 0.32455727 0.40509689 0
-0.11844669 0.32596785 0.39662257 0
-0.14119399 0.32667252 0.37821448 0
-0.14947772 0.32872105 0.37119862 0
-0.16684416 0.33004388 0.35658732 0
-0.1682505 0.32918012 0.35574111 0
-0.17527908 0.33125755 0.34973609 0
-0.2045019 0.33270615 0.32557496 0
-0.21276399 0.33365214 0.31865555 0
-0.21504655 0.33359829 0.31687206 0
-0.21750619 0.33339965 0.31488591 0
-0.23078094 0.33546251 0.30385783 0
-0.27855295 0.33927956 0.26332992 0
0.047468569 0.31319711 0.53554213 0
0.040911872 0.31427842 0.5301466 0
0.039634056 0.31336537 0.52934515 0
0.037389498 0.31314602 0.52723342 0
0.023309149 0.3158921 0.51549345 0
0.022181064 0.31496194 0.51455277 0
-0.017089978 0.31930497 0.48174506 0
-0.022304211 0.31870416 0.47747976 0
-0.027059212 0.31923091 0.47335622 0
-0.037685558 0.32006437 0.46417889 0
-0.04332355 0.32126656 0.45923686 0
-0.05588907 0.32253763 0.44930351 0
-0.060479838 0.32206079 0.44514748 0
-0.076736346 0.32316104 0.43154478 0
-0.081340335 0.32501623 0.42758119 0
-0.096465617 0.3261922 0.41503847 0
-0.10835753 0.32629785 0.40510985 0
-0.11522111 0.32647276 0.39926979 0
-0.1220705 0.32838923 0.39312604 0
-0.13538772 0.32889053 0.38284695 0
-0.13752192 0.32893997 0.38099247 0
-0.13889784 0.32974273 0.37982285 0
-0.14937668 0.33046728 0.37116361 0
-0.1681598 0.33116275 0.35558394 0
-0.17165221 0.33210963 0.35289434 0
-0.17358309 0.3323513 0.35074529 0
-0.17731053 0.33321521 0.34764484 0
-0.18020907 0.33300194 0.34567314 0
-0.18277529 0.33288753 0.3436079 0
-0.18371931 0.33365461 0.34236407 0
-0.18391891 0.33368668 0.34253156 0
-0.19002104 0.33426473 0.33731806 0
-0.19127506 0.33331043 0.33646581 0
-0.24166672 0.33792424 0.29454026 0
-0.24669686 0.33801523 0.29027981 0
-0.25008643 0.33926502 0.28729638 0
-0.26154938 0.33923203 0.27768803 0
-0.27938136 0.34156299 0.26166114 0
0.081424892 0.31159621 0.56412792 0
0.050735466 0.31423801 0.53794944 0
0.034960784 0.31654608 0.52514511 0
0.030289412 0.31559286 0.52136773 0
0.013938338 0.31861821 0.50726175 0
0.010326099 0.31814632 0.50430554 0
0.0030622929 0.31859508 0.49856451 0
-0.004964307 0.31893536 0.49131432 0
-0.017654616 0.32012329 0.48105684 0
-0.035104819 0.32273 0.4666864 0
-0.045500316 0.32318226 0.4576802 0
-0.047980919 0.32313672 0.45551938 0
-0.048746549 0.32236439 0.45485166 0
-0.050239373 0.3232317 0.45389006 0
-0.058194507 0.32401717 0.44700345 0
-0.067350507 0.32431534 0.43923512 0
-0.095208213 0.32701397 0.41601235 0
-0.12693526 0.32917506 0.38951358 0
-0.14248985 0.33223739 0.37697285 0
-0.15756068 0.33306703 0.36411768 0
-0.16811562 0.33290598 0.35558808 0
-0.19352269 0.33530724 0.33436701 0
-0.19840072 0.33651713 0.33056751 0
-0.20178446 0.33598259 0.32752192 0
-0.22803921 0.3392244 0.30586737 0
-0.23178735 0.33821404 0.30274436 0
-0.26379138 0.34278995 0.27582341 0
0.056238845 0.31619105 0.54263413 0
0.055043824 0.31527784 0.54173756 0
0.052732624 0.31655747 0.5400725 0
0.042058732 0.31740728 0.53080738 0
0.019385107 0.31946886 0.51230711 0
0.0043542497 0.32119176 0.49946639 0
-0.0040420294 0.32155317 0.49253035 0
-0.014755648 0.32147828 0.48337182 0
-0.013770521 0.32268441 0.48400667 0
-0.029048175 0.32334319 0.47155604 0
-0.033878122 0.32358557 0.46763119 0
-0.039484356 0.32476988 0.46287316 0
-0.045473136 0.32493722 0.45763934 0
-0.051150009 0.32595721 0.45288733 0
-0.071050838 0.32690749 0.43655998 0
-0.079023495 0.32781732 0.42957285 0
-0.087168545 0.32758492 0.42269194 0
-0.089396223 0.32946754 0.42074662 0
-0.11340556 0.33147186 0.40024707 0
-0.15291181 0.33318087 0.36823735 0
-0.16008268 0.33501726 0.362149 0
-0.169155 0.33554021 0.35464525 0
-0.17342016 0.33551052 0.35085097 0
-0.19139665 0.33707482 0.33621046 0
-0.21927735 0.34073249 0.31260896 0
-0.22818753 0.34095806 0.30570421 0
-0.23683232 0.34231234 0.29813996 0
-0.23811232 0.34156281 0.29723176 0
-0.2511082 0.34189433 0.28654352 0
-0.25711176 0.34395429 0.28144133 0
-0.25931659 0.34253669 0.27945742 0
0.082470939 0.31459847 0.56475556 0
0.06714996 0.31593695 0.5518527 0
0.065774657 0.31672853 0.55064809 0
0.064656451 0.31600901 0.54962134 0
0.059094965 0.31711245 0.54486948 0
0.056143541 0.31792369 0.54263282 0
0.055022378 0.31701475 0.54172695 0
0.045381892 0.31852368 0.53326404 0
0.040101968 0.31828213 0.52891105 0
0.020974986 0.32031456 0.51320195 0
0.0056967437 0.32189733 0.50052863 0
-9.0003014e-05 0.32218894 0.49538755 0
-0.0012903996 0.32326829 0.49439901 0
-0.014107957 0.32440922 0.48423514 0
-0.020991128 0.32397303 0.47839624 0
-0.033814453 0.32533985 0.46761623 0
-0.044187136 0.32581005 0.45838496 0
-0.053422306 0.32633039 0.45111576 0
-0.053512216 0.32805273 0.45103639 0
-0.066549711 0.32772443 0.44000456 0
-0.071999006 0.32958248 0.43548566 0
-0.078073412 0.32866314 0.4305976 0
-0.097381234 0.33058324 0.41396347 0
-0.10536077 0.33207428 0.40741444 0
-0.11793099 0.33327764 0.39674747 0
-0.12813112 0.33342251 0.38852721 0
-0.1516027 0.33593896 0.36882633 0
-0.17725761 0.33842754 0.34744865 0
-0.18213335 0.33901218 0.34360522 0
-0.19234103 0.33955008 0.33538705 0
-0.19714621 0.33924511 0.33156991 0
-0.21651098 0.34096926 0.31579199 0
-0.22838254 0.34302795 0.30543345 0
-0.23090574 0.34343687 0.30339852 0
-0.23203434 0.34210306 0.30251771 0
-0.24109116 0.34322378 0.29497495 0
-0.26064616 0.34506291 0.27833703 0
-0.27437273 0.34580243 0.26699704 0
0.046806883 0.32099622 0.53505921 0
0.046337977 0.31952071 0.53412908 0
0.023465544 0.32295877 0.51547474 0
0.016380388 0.32233658 0.50919247 0
0.012715772 0.32381934 0.50641364 0
0.0060328394 0.32364362 0.50051183 0
-0.011479035 0.32581654 0.48623073 0
-0.022107352 0.32660758 0.47738364 0
-0.024283536 0.32649043 0.47545013 0
-0.026660837 0.32683757 0.47355297 0
-0.036886699 0.32818317 0.46468279 0
-0.059416428 0.32901376 0.44607642 0
-0.068658963 0.3304472 0.43840569 0
-0.076895595 0.33159122 0.43146619 0
-0.092754677 0.33224809 0.41788942 0
-0.16230144 0.33868495 0.36019173 0
-0.16812193 0.3393012 0.35521823 0
-0.17734945 0.3401863 0.34747213 0
-0.18093017 0.33945197 0.34481525 0
-0.18412146 0.34033075 0.34207502 0
-0.19230503 0.341299 0.33534926 0
-0.20300382 0.3420454 0.32641762 0
-0.21710095 0.34376135 0.31485987 0
-0.21973616 0.34424272 0.31259587 0
-0.22555506 0.34433231 0.307477 0
-0.2333582 0.34505227 0.30119824 0
0.060147282 0.31989741 0.54562622 0
0.050236091 0.32184598 0.53791708 0
0.049361587 0.32258338 0.53685915 0
0.036412776 0.32302266 0.5258882 0
0.027149133 0.32393217 0.51825619 0
0.024590068 0.32391077 0.51638645 0
0.022369552 0.32391116 0.51440454 0
0.021157987 0.3246254 0.51339674 0
0.016342383 0.32399365 0.50922525 0
0.0082197003 0.32507032 0.50234479 0
-0.0025780462 0.32596263 0.49345669 0
-0.026557095 0.32859784 0.47350588 0
-0.030030716 0.32796916 0.47051209 0
-0.029882034 0.32955298 0.47054169 0
-0.028958602 0.32858777 0.47157556 0
-0.032468073 0.32809409 0.46860319 0
-0.033650681 0.3290565 0.46760717 0
-0.037786033 0.32936576 0.46369681 0
-0.042148128 0.32983437 0.45984134 0
-0.055788778 0.3313528 0.44902417 0
-0.056830477 0.33050182 0.44805375 0
-0.079132505 0.33327875 0.42911693 0
-0.083816953 0.33321655 0.42556414 0
-0.08650735 0.33303064 0.4228926 0
-0.12157472 0.33767223 0.39350212 0
-0.12652832 0.33761197 0.38953522 0
-0.13480812 0.33895215 0.38287389 0
-0.18658043 0.34205854 0.34015721 0
-0.19788513 0.34367082 0.33046615 0
-0.20284529 0.34380317 0.32623932 0
-0.20737997 0.34391147 0.32245421 0
-0.21916667 0.34642711 0.31261721 0
-0.22184998 0.3463423 0.31055713 0
-0.2312122 0.34684566 0.30337444 0
-0.24194397 0.34764716 0.29390067 0
-0.24599454 0.34892693 0.2900261 0
-0.25205764 0.34775943 0.28548321 0
-0.25973883 0.3495779 0.27959564 0
-0.26688921 0.3491824 0.27311239 0
-0.26915753 0.34925318 0.27125823 0
0.079120919 0.32057488 0.56142944 0
0.06706962 0.32170922 0.55114812 0
0.064508945 0.32156181 0.54927796 0
0.022191286 0.32565588 0.51449233 0
0.0036733449 0.32713318 0.49846593 0
-0.029892797 0.32971093 0.47052792 0
-0.036586702 0.33194914 0.46482909 0
-0.048231997 0.33271426 0.45478135 0
-0.062804952 0.33350524 0.44320783 0
-0.081356324 0.33507091 0.42748603 0
-0.097032622 0.33611697 0.41400275 0
-0.10993057 0.33755794 0.40330261 0
-0.12041201 0.3385306 0.3944571 0
-0.13020988 0.33889073 0.38658059 0
-0.14206848 0.34102005 0.37692669 0
-0.17521524 0.34342894 0.34931216 0
-0.17816296 0.34346208 0.34665039 0
-0.18760818 0.34476078 0.33919799 0
-0.20115191 0.34641713 0.32768488 0
-0.20694064 0.34567106 0.32221398 0
-0.22075382 0.34717888 0.31161648 0
-0.25210169 0.34951305 0.28543365 0
-0.25977728 0.35201687 0.27901158 0
-0.26910838 0.35120106 0.27117839 0
-0.26910594 0.35240242 0.27123433 0
-0.27984163 0.35229674 0.26192808 0
0.074187562 0.32214224 0.55756128 0
0.071231671 0.32294986 0.5548017 0
0.072264761 0.32400021 0.55586314 0
0.057658762 0.32522848 0.54337251 0
0.050373562 0.32552785 0.53795928 0
0.029531907 0.32643399 0.51992613 0
0.013472341 0.32932192 0.50671184 0
-0.0018592179 0.32970914 0.4937897 0
-0.017316666 0.33089775 0.48122397 0
-0.032136217 0.33281255 0.46841159 0
-0.075520724 0.33579433 0.43260086 0
-0.081198879 0.33696851 0.42748308 0
-0.081190825 0.33682337 0.4274478 0
-0.10390882 0.33982682 0.4081451 0
-0.1062025 0.33974954 0.4063018 0
-0.12645993 0.34136552 0.38958019 0
-0.1381743 0.34149882 0.38003784 0
-0.14651045 0.34244546 0.37309971 0
-0.17116302 0.34578708 0.35254952 0
-0.17507714 0.34517443 0.34929204 0
-0.22282606 0.34882835 0.30952787 0
-0.24263328 0.35077733 0.29265416 0
-0.27034065 0.35335898 0.27031949 0
-0.27401337 0.35468739 0.26707357 0
-0.2730456 0.35390431 0.2679064 0
0.076533057 0.32380912 0.55989963 0
0.074702397 0.32387576 0.55745107 0
0.037210099 0.32874033 0.52637213 0
0.0083054937 0.3309226 0.5025022 0
0.0036738887 0.33064812 0.49843639 0
-0.00047292933 0.33222505 0.49486572 0
-0.0054085739 0.33239302 0.49073559 0
-0.028358154 0.33494213 0.47135493 0
-0.056301687 0.33675453 0.44815588 0
-0.073352173 0.33791801 0.4344264 0
-0.10078557 0.34046164 0.41085497 0
-0.10271943 0.34066361 0.4089722 0
-0.10613731 0.3414959 0.4063099 0
-0.11089887 0.34216222 0.40230873 0
-0.11778401 0.34201926 0.39652637 0
-0.12474066 0.34357238 0.39078775 0
-0.18215981 0.3471711 0.34377462 0
-0.18603823 0.34899551 0.34029785 0
-0.18826199 0.34886202 0.33834961 0
-0.21552055 0.35141048 0.31561169 0
-0.2281457 0.35208213 0.3052476 0
-0.22719079 0.35130933 0.30613935 0
-0.27625924 0.35665756 0.26486188 0
0.065778375 0.32748815 0.55032343 0
0.061339967 0.32793015 0.54640734 0
0.050681401 0.32903829 0.53758878 0
0.048293509 0.32894817 0.53543884 0
0.039393317 0.33039272 0.52813596 0
0.026311599 0.33009031 0.51753014 0
0.016935013 0.33185473 0.50975215 0
-0.036226772 0.33582914 0.46472558 0
-0.047194604 0.33790767 0.4554261 0
-0.074259825 0.3407923 0.43337592 0
-0.089766748 0.34080333 0.42014921 0
-0.090922989 0.34177312 0.41921005 0
-0.10051553 0.34230709 0.41093993 0
-0.11659659 0.34469053 0.3974182 0
-0.12663697 0.34481162 0.38972864 0
-0.13803023 0.34489009 0.38015947 0
-0.17043644 0.34838977 0.35310221 0
-0.17374672 0.34940645 0.35023263 0
-0.18357101 0.35070544 0.34213451 0
-0.1931344 0.35045469 0.33428621 0
-0.19659823 0.35137084 0.33142862 0
-0.22389191 0.35433286 0.30884376 0
-0.24009182 0.35409594 0.29497451 0
-0.26039577 0.35629326 0.27816421 0
0.037163105 0.33225074 0.52627677 0
0.034787476 0.33235168 0.52412987 0
0.029385336 0.33310169 0.51995724 0
0.014856346 0.33342019 0.50766796 0
0.0060807616 0.33401418 0.50033891 0
-0.030848077 0.33725581 0.46942633 0
-0.028696468 0.33713645 0.47147906 0
-0.051287174 0.33898959 0.45242074 0
-0.05744018 0.34104729 0.44718507 0
-0.062141452 0.34077927 0.44346935 0
-0.064879633 0.34067401 0.4413656 0
-0.082983531 0.34279066 0.42609271 0
-0.088448919 0.34392944 0.42132744 0
-0.1028738 0.34412849 0.40904734 0
-0.10652298 0.34479535 0.40609163 0
-0.10754034 0.34557226 0.405067 0
-0.13838491 0.34702873 0.37975296 0
-0.1394251 0.34855214 0.37845162 0
-0.17052494 0.35027733 0.35307807 0
-0.17856681 0.35114455 0.34644231 0
-0.18245265 0.35192057 0.34248081 0
-0.18603031 0.35252637 0.34023321 0
-0.1895823 0.35139069 0.3373062 0
-0.19887464 0.35369119 0.3294813 0
-0.20079128 0.35381523 0.32757777 0
-0.20533659 0.35384744 0.32380605 0
-0.22145773 0.35609284 0.31072223 0
-0.22270724 0.35522339 0.30981755 0
-0.22608642 0.35613936 0.30685472 0
0.035906173 0.33320302 0.52491397 0
0.033566155 0.33316451 0.5232566 0
0.024894699 0.33522263 0.51587188 0
0.0015807115 0.33754489 0.49640262 0
-0.026028182 0.33909667 0.47341982 0
-0.025086857 0.33832282 0.47431663 0
-0.028680274 0.33907512 0.47138733 0
-0.045185234 0.34165683 0.457277 0
-0.048649844 0.3407822 0.45426241 0
-0.065810688 0.34338045 0.44036511 0
-0.079863392 0.34342739 0.42857859 0
-0.087136909 0.34491783 0.42237133 0
-0.091853023 0.34456176 0.41825712 0
-0.12620616 0.34917125 0.38969949 0
-0.16058792 0.3512679 0.3613975 0
-0.17512359 0.35377535 0.34907925 0
-0.19171974 0.35485989 0.33520269 0
-0.19779107 0.35458019 0.33043045 0
-0.21991941 0.35698724 0.31159285 0
-0.24020252 0.35909593 0.29464391 0
-0.24825267 0.36034507 0.28837833 0
-0.25131413 0.359346 0.28517002 0
0.061240282 0.33318573 0.54617554 0
0.032359425 0.33578932 0.52194738 0
0.0063771382 0.33768034 0.50032568 0
-0.006190341 0.33912206 0.48992151 0
-0.029936105 0.3417182 0.47038111 0
-0.039825201 0.34280103 0.4614912 0
-0.075174287 0.3450048 0.43237978 0
-0.076296501 0.34598064 0.43143049 0
-0.086292073 0.34727174 0.42307991 0
-0.085095778 0.34629443 0.42408395 0
-0.1213412 0.35034326 0.39327514 0
-0.12412583 0.34926322 0.39145938 0
-0.13847652 0.35065317 0.37870312 0
-0.14146453 0.35100338 0.37727591 0
-0.15456563 0.35231233 0.36615008 0
-0.17159307 0.35438153 0.352146 0
-0.17887834 0.35563108 0.34615692 0
-0.1872339 0.35534823 0.33914196 0
-0.18595704 0.35630873 0.33964214 0
-0.19544095 0.35595149 0.33243212 0
0.055375617 0.33580172 0.54156607 0
0.049472056 0.33649355 0.5363574 0
0.02007927 0.33771771 0.51165485 0
0.01785887 0.33895397 0.50984579 0
0.0083104372 0.33924878 0.50230277 0
-0.0012377687 0.34046182 0.49398807 0
-0.012623806 0.34156495 0.48454678 0
-0.030896822 0.34379706 0.46909481 0
-0.068151385 0.34682575 0.43805331 0
-0.067165449 0.34592256 0.43944672 0
-0.069364607 0.34603533 0.43712017 0
-0.075121239 0.34678009 0.43238774 0
-0.10395481 0.34993437 0.4080528 0
-0.13926131 0.35298425 0.379134 0
-0.18722507 0.35707369 0.33902633 0
-0.18941164 0.35842687 0.33676857 0
-0.21438152 0.36020553 0.31609216 0
-0.23730338 0.36245686 0.29753488 0
-0.25055149 0.3635658 0.28491455 0
0.075172037 0.33467543 0.55758655 0
0.07226447 0.33511305 0.55518574 0
0.050760254 0.33741322 0.53728765 0
0.040289294 0.33880585 0.52841014 0
0.039206058 0.33784747 0.52739233 0
0.015224699 0.34134424 0.50775129 0
0.00062154233 0.34203696 0.49514925 0
-0.011213738 0.34262577 0.48560399 0
-0.022167735 0.34474185 0.47660831 0
-0.032761306 0.34615889 0.46751499 0
-0.044302199 0.34716293 0.45797375 0
-0.050068565 0.34707782 0.45327649 0
-0.070432425 0.34858504 0.43609583 0
-0.076815858 0.35023144 0.43097493 0
-0.085105203 0.34987536 0.4240641 0
-0.098740295 0.35174453 0.41239017 0
-0.12943512 0.35499972 0.38689169 0
-0.16257581 0.35740024 0.35959917 0
-0.16911954 0.35805953 0.35398173 0
-0.17757413 0.35932037 0.34698436 0
-0.19400445 0.36017495 0.33339247 0
-0.2026473 0.36179927 0.32582283 0
-0.20385505 0.3612375 0.32521847 0
-0.22777526 0.36282876 0.30543771 0
0.069996722 0.33694854 0.55326182 0
0.065305263 0.33723849 0.54932225 0
0.034943767 0.34096536 0.52410132 0
0.027400613 0.34205702 0.51795888 0
0.025384899 0.34214097 0.51592088 0
0.023800336 0.34179842 0.51505166 0
0.015259605 0.34310713 0.50769532 0
-0.0078916177 0.3444919 0.48840314 0
-0.016222343 0.34546739 0.48144576 0
-0.019665625 0.3462863 0.47851866 0
-0.027963772 0.34648752 0.47147807 0
-0.032817684 0.34791386 0.46754941 0
-0.059858777 0.34873885 0.44495639 0
-0.072488919 0.3506555 0.43419003 0
-0.073023021 0.35159409 0.43371803 0
-0.080348834 0.35235327 0.42730561 0
-0.095830709 0.35272339 0.41486704 0
-0.10776144 0.35456231 0.40481785 0
-0.10959639 0.35467303 0.40279809 0
-0.13560766 0.35750023 0.38203683 0
-0.13940503 0.35645467 0.37910318 0
-0.1579152 0.35789037 0.36316594 0
-0.16623908 0.36012211 0.35663727 0
-0.18867645 0.36241081 0.33796233 0
-0.20695658 0.36408648 0.32264116 0
-0.28953177 0.36912331 0.27405927 0
0.078868836 0.33842385 0.56034106 0
0.067667708 0.33893842 0.55124521 0
0.066511191 0.33987325 0.55011928 0
0.06283734 0.33929196 0.54735589 0
0.061431345 0.34020317 0.54608077 0
0.05449719 0.34151658 0.54020429 0
0.04934822 0.34187174 0.53606796 0
0.046702556 0.34066755 0.53391242 0
0.022764325 0.34286255 0.51408464 0
0.019734263 0.34332764 0.51128697 0
0.019493897 0.34445378 0.5110901 0
0.0093830451 0.34573901 0.50267792 0
0.0041571297 0.34587097 0.4981699 0
-0.010035396 0.3463901 0.48632053 0
-0.013807029 0.34732267 0.48339283 0
-0.037586324 0.34974733 0.46357545 0
-0.042959593 0.34972399 0.45891768 0
-0.072207704 0.35233539 0.43453473 0
-0.092221394 0.35359532 0.4178232 0
-0.098075144 0.35439095 0.41273588 0
-0.10498695 0.35624722 0.40701556 0
-0.1142471 0.35613433 0.39909863 0
-0.15799689 0.36077955 0.36305773 0
-0.25654995 0.36797351 0.30043 0
-0.2874448 0.37123817 0.27599311 0
0.077788703 0.33943164 0.5591405 0
0.064293839 0.3418119 0.5483737 0
0.060209192 0.3422755 0.54490137 0
0.056755546 0.34149593 0.5423032 0
0.050518021 0.34234652 0.53711182 0
0.025102697 0.34487146 0.51583117 0
0.010611467 0.34656823 0.50374979 0
0.0026885308 0.34684911 0.49713665 0
0.0013942644 0.34783241 0.49661687 0
-0.0028213263 0.34749433 0.49250796 0
-0.013754688 0.34907794 0.48340091 0
-0.015171867 0.34830439 0.48200327 0
-0.017291728 0.34977019 0.48042572 0
-0.028983926 0.35087138 0.47041443 0
-0.053890716 0.35256124 0.44973728 0
-0.072326854 0.35406661 0.43467051 0
-0.10178639 0.35712072 0.40979409 0
-0.1048319 0.35799575 0.40698239 0
-0.13230732 0.35946417 0.38483059 0
-0.13327004 0.35932943 0.38382527 0
-0.13776594 0.36059332 0.3801313 0
-0.14650472 0.36044595 0.37291184 0
-0.15584356 0.36272532 0.36490619 0
-0.18722509 0.36520243 0.33774072 0
-0.27400127 0.37092057 0.28752688 0
-0.29400465 0.37358576 0.27084729 0
0.084034219 0.34153441 0.56419605 0
0.050527662 0.34441355 0.53710049 0
0.020008624 0.34782925 0.51198268 0
0.015449211 0.3483021 0.50732177 0
-0.00064188987 0.34926471 0.49405721 0
0.00041244924 0.34865227 0.49515289 0
-0.0065622367 0.35035226 0.48921061 0
-0.020828996 0.35105664 0.47748256 0
-0.080273271 0.35612574 0.42792153 0
-0.083695896 0.35697976 0.42480019 0
-0.11664709 0.35977966 0.39703611 0
-0.11867395 0.36097118 0.39512059 0
-0.11952657 0.36046937 0.3946318 0
-0.1247768 0.36188018 0.39070749 0
-0.12713502 0.36182797 0.38871425 0
-0.13105068 0.36209783 0.38575038 0
-0.1365374 0.36138278 0.38125846 0
-0.25120607 0.37121233 0.30618688 0
-0.25236845 0.37193224 0.30508393 0
-0.29521674 0.37630722 0.26948759 0
-0.29393685 0.37535974 0.27077919 0
0.069362357 0.34499857 0.55252665 0
0.049417678 0.34708309 0.53607672 0
0.048418336 0.34622994 0.53502715 0
0.040792506 0.34695134 0.52868581 0
0.029925294 0.34844223 0.51957899 0
0.021162912 0.34959224 0.51225924 0
0.0066762716 0.35001925 0.50022209 0
0.0018149577 0.35103679 0.49614358 0
-0.0063158832 0.35222489 0.48913151 0
-0.0075470507 0.35140756 0.48824045 0
-0.015911829 0.35219792 0.48126823 0
-0.027982511 0.35357049 0.47125179 0
-0.038762547 0.35402441 0.4622978 0
-0.055587582 0.35670471 0.44794405 0
-0.057372391 0.35729629 0.44705376 0
-0.064554989 0.35738492 0.44082317 0
-0.0942045 0.36083141 0.41596341 0
-0.096451238 0.36055461 0.4137629 0
-0.1015821 0.36060554 0.40978399 0
-0.10374073 0.3606652 0.40780759 0
-0.17454627 0.36709735 0.34958297 0
-0.17628375 0.36860484 0.34723997 0
-0.22867772 0.37122938 0.32393405 0
-0.22987401 0.37186253 0.32369468 0
-0.23039317 0.37183553 0.32329649 0
-0.2499449 0.37386683 0.30729359 0
-0.26309252 0.37542942 0.29632866 0
-0.27145937 0.37519941 0.28928444 0
-0.27837679 0.37523243 0.28332129 0
-0.28096482 0.37698337 0.28172684 0
-0.28712824 0.37763008 0.2765052 0
-0.28845966 0.37635759 0.27545479 0
0.048366673 0.34798765 0.53500551 0
0.038700476 0.34885865 0.52678895 0
0.020004801 0.35064477 0.51146358 0
0.014104798 0.35097706 0.50636166 0
-0.00072412938 0.35280141 0.49405181 0
-0.032749493 0.35665804 0.46749252 0
-0.04581584 0.35679823 0.45657843 0
-0.0682301 0.36034212 0.43772715 0
-0.07739982 0.35960779 0.43005702 0
-0.095329091 0.36166009 0.41477585 0
-0.22212206 0.37279639 0.33037832 0
-0.22334158 0.37333235 0.32932061 0
-0.22324154 0.37204564 0.32931861 0
-0.23181853 0.37252191 0.32248458 0
-0.2524111 0.37510645 0.30535129 0
-0.25693285 0.37547663 0.30152979 0
-0.26301211 0.37725765 0.29650232 0
-0.26573962 0.37623632 0.29417402 0
-0.27222431 0.37767711 0.28860554 0
-0.27854249 0.37872785 0.28332236 0
-0.29182976 0.37892887 0.27235568 0
-0.29642141 0.37873274 0.2685253 0
-0.30205953 0.38072395 0.26378432 0
0.087642826 0.3463304 0.56513071 0
0.072018534 0.34850797 0.55430359 0
0.062741473 0.34854123 0.54684204 0
0.061160542 0.34822577 0.54539859 0
0.05852605 0.34981996 0.54328305 0
0.015075371 0.35360467 0.50750345 0
0.0030768812 0.35415781 0.49674094 0
-0.00095546991 0.35462886 0.49372345 0
-0.014850363 0.3567951 0.48226187 0
-0.024452772 0.3571035 0.47447193 0
-0.026938813 0.35709974 0.47207084 0
-0.032624967 0.35842451 0.46748137 0
-0.031528845 0.35760093 0.46849701 0
-0.039888922 0.3580215 0.46137747 0
-0.041000601 0.35899976 0.46049815 0
-0.046842769 0.35947186 0.4552964 0
-0.069664828 0.36111251 0.43673885 0
-0.07859686 0.36217824 0.42908394 0
-0.088446558 0.36329332 0.4208208 0
-0.094265938 0.36432377 0.41586515 0
-0.099183276 0.36410415 0.41180891 0
-0.10245901 0.36507195 0.40873757 0
-0.1045533 0.36501467 0.40671948 0
-0.11718629 0.36551657 0.39620021 0
-0.12683126 0.36730009 0.38847899 0
-0.20986784 0.37342691 0.33986115 0
-0.23973121 0.37670955 0.31560388 0
-0.24237755 0.37654081 0.31374314 0
-0.27001256 0.37904316 0.29049364 0
-0.2797702 0.37965536 0.28237471 0
-0.28194639 0.38096252 0.28050908 0
-0.29744884 0.38150623 0.26741976 0
0.074220955 0.34855983 0.55635232 0
0.057434902 0.3504765 0.54224122 0
0.042327657 0.35317972 0.52973586 0
0.042014658 0.35180727 0.52949476 0
0.043267336 0.35279056 0.53037381 0
0.03641516 0.35383001 0.52484041 0
0.035303593 0.35270014 0.52394056 0
0.01616089 0.35463715 0.50854588 0
0.013944902 0.35447115 0.50649279 0
-0.021643791 0.3590185 0.47604644 0
-0.020535897 0.35786203 0.47730264 0
-0.046160337 0.36065078 0.4561533 0
-0.057459373 0.36251169 0.44658601 0
-0.070857331 0.3640008 0.43551022 0
-0.089608788 0.36511216 0.41989842 0
-0.090664044 0.36595252 0.41879559 0
-0.1001232 0.36681649 0.41080037 0
-0.11161827 0.36667728 0.39977565 0
-0.20544364 0.37382758 0.34412807 0
-0.22202665 0.37620044 0.33030307 0
-0.23163879 0.37804684 0.32230842 0
-0.26771063 0.38104379 0.29259035 0
-0.26990962 0.38081446 0.29045451 0
-0.2761901 0.38180277 0.28563955 0
-0.28941226 0.38261467 0.2741946 0
-0.28829035 0.38179377 0.27533716 0
-0.30201596 0.38353553 0.26365811 0
0.065543734 0.35216105 0.54918402 0
0.059634104 0.35262504 0.54401755 0
0.051409356 0.35355261 0.53717905 0
0.035420064 0.35492292 0.5237872 0
0.024988219 0.3559036 0.51550245 0
-0.00076561421 0.35897166 0.49350518 0
-0.02308768 0.35992295 0.47507551 0
-0.046235062 0.36240649 0.45614183 0
-0.05484065 0.3644101 0.44880524 0
-0.068535656 0.36410761 0.43746036 0
-0.070905142 0.36575031 0.43543667 0
-0.075091459 0.36476105 0.4316949 0
-0.097738497 0.36852238 0.41249722 0
-0.10439588 0.36772436 0.40611443 0
-0.11379373 0.36912715 0.39765835 0
-0.12595184 0.37115216 0.38958398 0
-0.16714123 0.37217847 0.37565035 0
-0.17427289 0.37319368 0.36707696 0
-0.1869134 0.37459135 0.35873225 0
-0.1910187 0.37458184 0.3558414 0
-0.20232752 0.37714046 0.34664565 0
-0.2474805 0.38034368 0.30909741 0
-0.25541985 0.38161594 0.3021833 0
-0.25684044 0.38207105 0.30131063 0
-0.26190379 0.38147154 0.29739574 0
-0.26652074 0.38335907 0.29350799 0
-0.26767167 0.38254976 0.29255563 0
