# .PCD v0.7 - Point Cloud Data file format
VERSION 0.7
FIELDS x y z intensity
SIZE 4 4 4 4
TYPE F F F F
COUNT 1 1 1 1
WIDTH 1329
HEIGHT 1
VIEWPOINT 0 0 0 1 0 0 0
POINTS 1329
DATA ascii
0.050266523 0.64549619 -0.024272501 0
0.063481607 0.64668512 -0.013478686 0
0.079201095 0.65087396 0.000221689 0
0.0823735 0.65067804 0.0020224731 0
0.087548777 0.65234697 0.0067034755 0
0.10636258 0.65419704 0.021679185 0
0.11655856 0.65755397 0.030852895 0
0.12603956 0.65804893 0.038593702 0
0.13519055 0.65958995 0.046489723 0
0.14352456 0.66108286 0.052727833 0
0.1778395 0.66686994 0.081142694 0
0.17911851 0.66766393 0.082385682 0
0.24796246 0.67932773 0.14013137 0
0.25932246 0.68100762 0.1492974 0
0.29511338 0.68751758 0.17884646 0
0.31059343 0.68995959 0.19051547 0
-0.014807928 0.63651925 -0.078402594 0
0.024505846 0.6425662 -0.045656834 0
0.093107685 0.65568203 0.010873263 0
0.13017556 0.66185695 0.041587517 0
0.14667355 0.66466594 0.05507724 0
0.16016154 0.66592085 0.066840656 0
0.21732748 0.67572683 0.11440136 0
0.22610247 0.67668074 0.12179436 0
0.23170148 0.67831665 0.12653138 0
0.24669847 0.68052667 0.13903339 0
0.26196742 0.68295765 0.15157741 0
0.27841142 0.68555272 0.16498445 0
-0.024973014 0.63692433 -0.086670622 0
-0.013306315 0.63936025 -0.077337198 0
-0.010604423 0.63932323 -0.075190485 0
-0.0094565358 0.63862622 -0.073997498 0
0.040901024 0.64690816 -0.032485906 0
0.084924996 0.65442204 0.0044849445 0
0.0862225 0.65537792 0.005694028 0
0.12606558 0.66204691 0.038370714 0
0.15890855 0.66901588 0.065546863 0
0.16159853 0.66879487 0.06774766 0
0.2162455 0.67752075 0.11349034 0
0.22774649 0.67978674 0.12295436 0
0.29552945 0.6916585 0.17881745 0
0.30893043 0.69362259 0.18961747 0
-0.0052178819 0.6427542 -0.070720978 0
0.0082174987 0.64431721 -0.059915956 0
0.014765263 0.64474422 -0.054211549 0
0.034203835 0.64846611 -0.03803223 0
0.043497838 0.65072817 -0.030140899 0
0.051719535 0.65220112 -0.023271995 0
0.079721704 0.65657306 -6.8336492e-05 0
0.078509398 0.65558207 -0.0013162866 0
0.12625954 0.66405094 0.03840011 0
0.14265555 0.66806686 0.051999636 0
0.14368555 0.66655791 0.053032644 0
0.14793855 0.66784292 0.056296948 0
0.16001554 0.67003787 0.066952862 0
0.17241052 0.67173088 0.077111274 0
0.17939553 0.6739378 0.08297839 0
0.20369552 0.67788178 0.10286933 0
0.2067865 0.67754376 0.10526633 0
0.2053365 0.67840475 0.10414234 0
0.2136015 0.68002683 0.11098135 0
0.2236675 0.6810258 0.11963536 0
0.23094946 0.68342471 0.12489136 0
0.24014047 0.68374372 0.13318138 0
0.26511446 0.68940967 0.15368941 0
-0.016850308 0.64263421 -0.080481313 0
-0.014284818 0.64269125 -0.078582503 0
-0.011412017 0.64225227 -0.076274201 0
0.014883861 0.64667624 -0.054289851 0
0.016195361 0.6475873 -0.053229753 0
0.023664355 0.64780015 -0.04678034 0
0.026068553 0.64920717 -0.04476374 0
0.028942946 0.64870518 -0.042612337 0
0.036694247 0.65029913 -0.035865325 0
0.041136429 0.65080208 -0.03252371 0
0.050766233 0.65327913 -0.024747701 0
0.053070325 0.65318817 -0.022120789 0
0.065180719 0.65571803 -0.012269478 0
0.091757901 0.66080213 0.01000227 0
0.11401559 0.66350901 0.028367389 0
0.11990258 0.66601408 0.033202402 0
0.15076555 0.6697759 0.058683246 0
0.15236256 0.67058587 0.05985605 0
0.15902555 0.67309278 0.065571845 0
0.2000075 0.67938673 0.099279322 0
0.25789544 0.68975866 0.14569341 0
0.030572753 0.65160024 -0.041709021 0
0.052059639 0.65637302 -0.023268595 0
0.059836127 0.65604806 -0.016673191 0
0.12410359 0.66791201 0.03599691 0
0.13536058 0.66952986 0.04590673 0
0.14514357 0.67236096 0.054279745 0
0.15774454 0.67409295 0.064440757 0
0.15902455 0.67505884 0.065561056 0
0.16314754 0.67573678 0.068995968 0
0.18363954 0.67940277 0.086416192 0
0.18527155 0.6787138 0.087341897 0
0.19858649 0.68064082 0.098105118 0
0.19720453 0.68173981 0.097112216 0
0.19721353 0.68164378 0.097225614 0
0.20009553 0.68146276 0.099197023 0
0.20697252 0.68204987 0.10502134 0
0.20538151 0.68120778 0.10401233 0
-0.019577697 0.64524531 -0.08274202 0
-0.015150101 0.6457563 -0.079768993 0
-0.012603008 0.64540321 -0.077431701 0
-0.0045960285 0.64680129 -0.070775285 0
0.071074128 0.66030711 -0.0075753802 0
0.079547018 0.66136903 -0.00090623414 0
0.088527322 0.66383606 0.0063429112 0
0.13296159 0.6718359 0.043785021 0
0.14565857 0.67424089 0.054001048 0
0.17007253 0.67807889 0.07500878 0
0.19589052 0.68277383 0.096165925 0
-0.012270801 0.64925325 -0.077389598 0
-0.00010103546 0.6498912 -0.067284174 0
0.003042791 0.65062022 -0.064039759 0
0.044299357 0.65886414 -0.029993501 0
0.063059136 0.6618911 -0.014708279 0
0.079823539 0.66537696 -0.00088465982 0
0.085251614 0.66556102 0.0041914256 0
0.091335714 0.66544002 0.0088816155 0
0.09681651 0.66715103 0.013284976 0
0.12752958 0.67259985 0.039017718 0
0.13870457 0.67372692 0.048189737 0
0.14394957 0.67551893 0.052881639 0
0.15283157 0.67686689 0.059428059 0
-0.010981407 0.65010923 -0.076237097 0
0.01032868 0.65491718 -0.058799166 0
0.049663745 0.66179907 -0.025840299 0
0.054805353 0.66115403 -0.02177939 0
0.075324431 0.6649161 -0.0042028506 0
0.094345003 0.669505 0.010903668 0
0.1046856 0.67077798 0.020294691 0
0.11350761 0.67183197 0.027632196 0
0.12939058 0.67522985 0.040108513 0
0.13175857 0.67490494 0.042562023 0
0.14573959 0.67830992 0.054078549 0
0.16193755 0.68065089 0.067732371 0
0.17488256 0.68409795 0.079190791 0
0.18313256 0.68487173 0.083651789 0
-0.021499787 0.65115422 -0.08494132 0
-0.0058397837 0.65251631 -0.071777679 0
0.0090263821 0.65611619 -0.059732165 0
0.016216278 0.65793312 -0.053880841 0
0.021586575 0.65748614 -0.04967073 0
0.029621471 0.65879214 -0.042547833 0
0.06468755 0.66475111 -0.013506674 0
0.077042624 0.66756904 -0.0029359846 0
0.075806633 0.66864306 -0.0040490977 0
0.088628113 0.66949803 0.0060736393 0
0.097121432 0.67149299 0.013000575 0
0.1069046 0.67362499 0.020834688 0
0.1161826 0.67443693 0.029385597 0
0.14754857 0.68116099 0.055077046 0
-0.022830788 0.65221035 -0.085943609 0
-0.021415183 0.65303737 -0.084831417 0
-0.013183185 0.65449429 -0.078823589 0
0.033902068 0.66320914 -0.038991719 0
0.040587768 0.66313612 -0.033709615 0
0.039198559 0.66237313 -0.034761418 0
0.051140152 0.66467512 -0.024655189 0
0.05665005 0.66598403 -0.020209584 0
0.063750952 0.66785806 -0.01461668 0
0.071589127 0.66838712 -0.0076114209 0
0.085958019 0.67180103 0.0040085586 0
0.13299458 0.67976201 0.043218426 0
0.14169158 0.68216395 0.050902039 0
0.1443516 0.68166184 0.053131543 0
0.18339254 0.68752283 0.083860397 0
0.20540954 0.69175988 0.097800732 0
-0.022749584 0.65408629 -0.085910112 0
0.056797061 0.66795605 -0.020190587 0
0.073096834 0.67131704 -0.0064816494 0
0.09950792 0.67554796 0.015629482 0
0.11177462 0.67776996 0.024907695 0
0.15305558 0.68499982 0.059357762 0
-0.022434775 0.6559912 -0.085722305 0
0.027156886 0.66525817 -0.044876024 0
0.057028055 0.66993105 -0.020185381 0
0.080417231 0.67401105 -7.1426854e-05 0
0.082073033 0.67477906 0.00094007864 0
0.20517257 0.69321573 0.081856333 0
0.20829955 0.69293576 0.083646439 0
0.0080301911 0.66388124 -0.061001655 0
0.013126899 0.66467816 -0.057243537 0
0.027642589 0.66743815 -0.044667222 0
0.030592483 0.66670913 -0.042659227 0
0.054731976 0.67253208 -0.022578282 0
0.11901162 0.683011 0.03143391 0
-0.0047630183 0.66370225 -0.071638465 0
0.011593912 0.66707629 -0.058267545 0
0.013340697 0.66667014 -0.057306547 0
0.039345179 0.67183816 -0.035344899 0
0.040418573 0.67080504 -0.034136511 0
0.073752046 0.67723906 -0.0064205844 0
-0.015783172 0.66245425 -0.080938794 0
-0.0058761947 0.66472727 -0.072764471 0
-0.0027151927 0.66480923 -0.069917165 0
0.013419408 0.66868412 -0.057264447 0
0.032348592 0.67148316 -0.040957715 0
0.039302882 0.67384112 -0.035331305 0
0.040480979 0.67286712 -0.034115504 0
0.060335565 0.67586607 -0.01782617 0
0.07832326 0.68098801 -0.002730919 0
0.13324162 0.68712586 0.026078725 0
-0.020758662 0.6651243 -0.0851475 0
-0.018300269 0.66439927 -0.083058998 0
-0.012436969 0.66571927 -0.078417815 0
-0.0051516816 0.66701823 -0.07252758 0
0.0005665347 0.66852814 -0.06775187 0
-0.0011676252 0.66759223 -0.069075368 0
0.0046858042 0.66934216 -0.064532362 0
0.036270674 0.67409712 -0.037819605 0
0.038272977 0.67505217 -0.036590405 0
0.044593889 0.67550915 -0.031611394 0
0.046978887 0.67737418 -0.029024294 0
-0.020384654 0.66913527 -0.085266098 0
-0.011069059 0.67082524 -0.077527285 0
-0.0033588819 0.67203021 -0.071378872 0
0.013037406 0.67395818 -0.057310134 0
0.039731797 0.67808521 -0.035612103 0
0.050134484 0.67977303 -0.028095789 0
0.070749082 0.68346101 -0.019235263 0
-0.014702155 0.67219025 -0.080771968 0
-0.016139656 0.67142129 -0.081716783 0
-0.010913063 0.67278314 -0.077566892 0
0.010588322 0.67638123 -0.058606051 0
0.018757716 0.67766029 -0.052727632 0
0.050622802 0.68178016 -0.037962187 0
-0.009586418 0.67372721 -0.076502666 0
-0.0082448479 0.67468524 -0.075360179 0
-0.0040833037 0.67510521 -0.072662458 0
0.024826217 0.68009514 -0.050683923 0
0.041687999 0.68176222 -0.038287796 0
0.049240008 0.68343413 -0.03791339 0
-0.019466646 0.67508829 -0.085221179 0
0.031222824 0.68379521 -0.046135813 0
-0.075278997 0.68059343 -0.040117051 0
-0.018085843 0.67592931 -0.083870403 0
0.0044099223 0.68086529 -0.066313051 0
-0.075690404 0.68201935 -0.039261062 0
0.0030166581 0.68202221 -0.07234025 0
0.013845649 0.68450928 -0.066698641 0
-0.013504032 0.68326426 -0.082220279 0
0.045287989 -0.40388891 0.23646964 0
0.046916202 -0.39986199 0.23693168 0
0.049215391 -0.40086791 0.23953165 0
0.027489327 -0.39663985 0.22383665 0
0.049512491 -0.39490092 0.23762664 0
0.048211619 -0.38765794 0.23363866 0
0.05436264 -0.37449598 0.23284169 0
0.070997931 -0.37364498 0.24445873 0
0.081893921 -0.37069502 0.25758174 0
0.068362042 -0.366431 0.24126372 0
0.083709128 -0.36273602 0.25694874 0
0.080864653 -0.35861301 0.25149772 0
0.083916262 -0.35220999 0.25617275 0
0.084670275 -0.34869602 0.25709477 0
0.078441598 -0.33943099 0.25321773 0
0.014906235 -0.33547691 0.22468965 0
0.068313397 -0.33374098 0.2473907 0
0.065070905 -0.33023399 0.24762774 0
0.066703297 -0.33190897 0.24771874 0
0.052393228 -0.32700294 0.24411468 0
0.061739117 -0.32551897 0.25087273 0
0.052723221 -0.32016897 0.25148973 0
0.091175996 -0.32018802 0.27107278 0
0.035038054 -0.31302294 0.24254267 0
0.039699145 -0.3137269 0.24746767 0
0.040972151 -0.31159091 0.24720868 0
0.047627352 -0.30478895 0.2523157 0
0.05628185 -0.29511297 0.25519371 0
0.090441935 -0.29015306 0.27832782 0
0.087415248 -0.28750005 0.27685279 0
0.08898285 -0.28799102 0.27843773 0
0.074339584 -0.28268901 0.25687677 0
0.086769059 -0.28537402 0.27668878 0
0.080501392 -0.27805802 0.25069377 0
0.11531375 -0.23745406 0.20022382 0
0.12875473 -0.23893408 0.20745684 0
0.10861074 -0.23429503 0.19900484 0
0.13117376 -0.22547907 0.20183484 0
0.13679174 -0.22430007 0.20645286 0
0.13965374 -0.22447011 0.20929085 0
0.12908377 -0.22307107 0.19976985 0
0.14510778 -0.21363312 0.20930986 0
0.1362308 -0.20955609 0.20162885 0
0.13557181 -0.20580009 0.20111786 0
0.12817478 -0.19702606 0.19861485 0
0.14812081 -0.19522212 0.20859888 0
0.14844482 -0.18944512 0.20780289 0
0.14855382 -0.1872251 0.20762089 0
0.14991079 -0.18506412 0.2085599 0
0.15253682 -0.18536513 0.21075188 0
0.15894184 -0.17741513 0.21611688 0
0.16156182 -0.17758116 0.21910493 0
0.14607584 -0.17361611 0.20593089 0
0.15821084 -0.16978915 0.21466389 0
0.16288385 -0.16891715 0.21887791 0
0.16437283 -0.16433413 0.22141293 0
0.16600785 -0.16346216 0.22257593 0
0.16747084 -0.16001517 0.2238359 0
0.16831386 -0.15499017 0.22384793 0
0.14178589 -0.1480621 0.20796989 0
0.14673489 -0.14807811 0.21027188 0
0.16645987 -0.14879815 0.22142592 0
0.16519587 -0.14761317 0.22015791 0
0.16660786 -0.14664917 0.22152293 0
0.098496653 -0.14651804 0.23395784 0
0.15580988 -0.14589514 0.21394993 0
0.16828087 -0.14564615 0.22242193 0
0.17455682 -0.14469318 0.23022194 0
0.16077988 -0.14298713 0.21637392 0
0.091696665 -0.14401004 0.23034182 0
0.092699766 -0.14255902 0.23152982 0
0.15945588 -0.13664414 0.21555692 0
0.10194685 -0.13567004 0.23909883 0
0.086261988 -0.13355701 0.2305378 0
0.088125788 -0.13368103 0.23175982 0
0.16122493 -0.13097613 0.21618892 0
0.17706591 -0.12972318 0.22862394 0
0.067210093 -0.12898098 0.2221058 0
0.16717789 -0.12657717 0.21962395 0
0.16866192 -0.12778416 0.22037794 0
0.1724799 -0.12777318 0.22380896 0
0.17504889 -0.12402017 0.22562994 0
0.15860294 -0.12003314 0.21488591 0
0.17770889 -0.11941317 0.22701994 0
0.18400192 -0.11903619 0.23432997 0
0.15856294 -0.11668313 0.21510094 0
0.073539123 -0.118027 0.23274583 0
0.076547794 -0.11720502 0.23611082 0
0.1030009 -0.11825905 0.24193385 0
0.18188891 -0.1162872 0.23158295 0
0.1832539 -0.11557021 0.23316398 0
0.073221914 -0.11561801 0.23514682 0
0.16826195 -0.11250515 0.21964295 0
0.17584595 -0.11218818 0.22490098 0
0.18257493 -0.11409519 0.23096097 0
0.16427195 -0.11004915 0.21716294 0
0.16514397 -0.10842115 0.21805194 0
0.16745794 -0.10945915 0.21953495 0
0.17623794 -0.10795118 0.22449394 0
0.18331194 -0.1075602 0.23124999 0
0.18042895 -0.099582985 0.22714998 0
0.19096291 -0.098089509 0.23720899 0
0.09338063 -0.098619938 0.24558485 0
0.11467591 -0.098455489 0.25486991 0
0.17292096 -0.094557166 0.22180997 0
0.16678999 -0.09237165 0.21915096 0
0.16962898 -0.091275662 0.22120194 0
0.18134598 -0.086757287 0.22641097 0
0.18932495 -0.087235801 0.232723 0
0.18953598 -0.082266614 0.233482 0
0.18303299 -0.0817862 0.22719099 0
0.19460498 -0.079729222 0.23770002 0
0.18341899 -0.076883897 0.22790697 0
0.197137 -0.061567329 0.23184299 0
0.13062397 -0.060574912 0.26558596 0
0.13740894 -0.059191234 0.27147695 0
0.13935098 -0.058729231 0.27137792 0
0.13520896 -0.057762723 0.26472592 0
0.20419502 -0.050856031 0.23354504 0
0.20299405 -0.043266624 0.22927405 0
0.13824901 -0.041616227 0.25907689 0
0.18514907 -0.034215994 0.21619499 0
0.20364308 -0.029985534 0.22618304 0
0.19738507 -0.019479118 0.21726502 0
0.13962406 -0.020812023 0.25246894 0
0.20484309 -0.017415432 0.22431304 0
0.20061813 -0.010455317 0.21872704 0
0.079171874 -0.010261486 0.16991986 0
-0.036753766 -0.0074088629 0.067898817 0
0.1201541 -0.0080108643 0.23277193 0
-0.029485967 -0.0057488522 0.072290309 0
0.013371967 -0.0072542098 0.11911178 0
0.20094113 -0.00074032228 0.21793103 0
0.015216082 -0.00028594583 0.11083978 0
-0.018854458 0.001922346 0.075215556 0
-0.013367675 0.00075756665 0.081638448 0
-0.0078464821 0.0010358349 0.086199149 0
0.0090021566 0.0012322874 0.10330178 0
0.037346259 0.0021685609 0.1321128 0
0.13490912 0.0027984316 0.23226994 0
-0.038579836 0.003148895 0.058526717 0
-0.026701953 0.0033703304 0.067606829 0
-0.010061771 0.0026601397 0.082934253 0
-0.0085439123 0.0045064697 0.082933657 0
0.014935203 0.0052740099 0.10519279 0
0.044752561 0.0058600148 0.13602979 0
0.20044616 0.0085664513 0.21610704 0
-0.041474923 0.0074444292 0.054645207 0
-0.034358732 0.0076429648 0.059285622 0
0.012831606 0.0068882508 0.10144179 0
0.085807033 0.0072708949 0.15806088 0
0.13476314 0.0073099881 0.22913294 0
0.014769815 0.010132759 0.10122579 0
0.082176745 0.010279819 0.15133688 0
0.10616522 0.0099225864 0.17783192 0
0.13021615 0.0091772787 0.22510196 0
-0.038099825 0.010364166 0.05549461 0
-0.032733321 0.011657158 0.058575828 0
-0.016195338 0.011622628 0.071088038 0
0.042577378 0.011934397 0.12819283 0
0.070155464 0.012575239 0.13901785 0
0.038902 0.013296213 0.12326883 0
0.050929978 0.012707879 0.13606185 0
-0.02758852 0.015410652 0.059466533 0
0.026309118 0.016353438 0.10911981 0
0.039044395 0.016523311 0.12116082 0
0.047018684 0.015851192 0.12944984 0
0.048623487 0.01614367 0.13116483 0
0.083586164 0.015393617 0.14777088 0
0.13771817 0.016338075 0.22504796 0
0.1997582 0.017247483 0.21413201 0
-0.018430132 0.017710041 0.066461548 0
0.017980427 0.018150648 0.099693403 0
0.027109914 0.01729963 0.10923281 0
0.089732461 0.018263809 0.1532169 0
0.19799221 0.019505378 0.21101804 0
-0.018882722 0.019295326 0.065043442 0
-0.010837328 0.018198822 0.072366156 0
0.043403402 0.019445002 0.12411383 0
0.047953703 0.020452488 0.12746984 0
0.073493078 0.020746145 0.13708289 0
0.11401723 0.020672638 0.17677893 0
-0.010582626 0.02158951 0.071136154 0
0.08697708 0.021550298 0.14785488 0
0.094117567 0.022890097 0.1540419 0
0.11327223 0.022326661 0.17591591 0
-0.0092234947 0.022187408 0.072380759 0
0.024020635 0.023831226 0.10306481 0
0.083299398 0.023908824 0.14208288 0
0.086785771 0.02329842 0.1461549 0
0.10545925 0.024599673 0.16288891 0
0.02878353 0.024570234 0.10791182 0
0.08601708 0.026421107 0.14325988 0
0.087988764 0.025202805 0.14643589 0
0.1320892 0.026755007 0.19735396 0
0.0014478937 0.027109101 0.079803377 0
0.012884274 0.028006162 0.09020599 0
0.0821096 0.027240032 0.1389349 0
0.083927892 0.02760781 0.14023487 0
0.19640321 0.029692486 0.20970403 0
0.013743162 0.029874558 0.091033585 0
0.081027806 0.030223437 0.13718489 0
0.11477026 0.030064153 0.17491792 0
0.11654226 0.030078433 0.17568092 0
0.14481518 0.030003063 0.21792097 0
0.19544125 0.032025397 0.20993404 0
0.022144668 0.031593829 0.099024206 0
0.089267492 0.032074798 0.14327088 0
0.13225824 0.032312006 0.19433695 0
0.13792622 0.033245191 0.20074897 0
0.14544222 0.033068366 0.21410798 0
0.023722358 0.032240737 0.10036381 0
0.055726126 0.033906363 0.13074487 0
0.027277157 0.034951925 0.10419582 0
0.10303628 0.036916979 0.15608092 0
-0.0062918887 0.037257899 0.073044367 0
0.095835701 0.038141701 0.1482079 0
0.099875905 0.037231974 0.15292691 0
0.11827226 0.037656933 0.17604694 0
-0.0062185377 0.039379615 0.074201472 0
-0.0047970563 0.038730692 0.07516107 0
0.032942057 0.039006915 0.10968983 0
0.1091363 0.040514152 0.16026191 0
0.026227556 0.040266037 0.10234182 0
0.049522825 0.040974293 0.12488584 0
0.1054043 0.04259637 0.15650593 0
0.14248922 0.04163288 0.20784198 0
0.1100653 0.044231255 0.16026792 0
0.19141123 0.046353802 0.20432203 0
0.18986323 0.047477007 0.20230405 0
0.19278122 0.047425203 0.20590806 0
-0.0087204911 0.045393113 0.077115364 0
0.021444187 0.046983354 0.098894015 0
0.093214519 0.048110291 0.1411119 0
0.13641825 0.048466489 0.20169297 0
0.0013624281 0.049078301 0.085644588 0
0.036141157 0.048281018 0.11344883 0
0.091810942 0.050322916 0.13995492 0
0.093905628 0.049920298 0.14126292 0
0.0015492141 0.050907694 0.087073386 0
0.027345687 0.057243232 0.10811383 0
0.028060995 0.058819234 0.10960183 0
0.037819073 0.057683315 0.11720584 0
0.10862634 0.059548557 0.15528193 0
0.12204531 0.060415737 0.17955595 0
0.17527327 0.062140021 0.19077903 0
-0.0077226944 0.059653509 0.078019373 0
0.18810526 0.062669925 0.20004201 0
0.037827581 0.062534109 0.11864884 0
0.10029036 0.064110994 0.14516193 0
0.12147428 0.064755909 0.17958996 0
0.18805729 0.064818308 0.19992106 0
-0.0049542449 0.063998498 0.07943818 0
0.093633972 0.065259285 0.13844091 0
0.10393736 0.066415176 0.14765993 0
0.11123834 0.066070765 0.15632093 0
0.19007328 0.069127485 0.20437004 0
-0.0017400421 0.067828186 0.083366983 0
0.10751835 0.070268564 0.15182093 0
0.10882635 0.06926845 0.15322794 0
-0.0013842247 0.07026168 0.082674786 0
0.0020964146 0.069030993 0.086900592 0
0.039198287 0.07117001 0.12330686 0
-0.052152112 0.069756098 0.053781226 0
0.0022917241 0.071191877 0.087039702 0
-0.0013381056 0.072388306 0.082634993 0
0.093301676 0.075344093 0.14616592 0
-0.002999559 0.075833194 0.081128091 0
0.038649991 0.076442309 0.12649985 0
0.12251334 0.078675613 0.18431297 0
0.031833597 0.077189431 0.12478784 0
0.039099999 0.077273987 0.12792785 0
-0.031686515 0.07790526 0.064329758 0
-0.01294183 0.079482518 0.073848069 0
0.035560906 0.080065221 0.12832886 0
0.056674086 0.079410978 0.14002787 0
0.12043135 0.082078733 0.18269497 0
0.0037330724 0.080881089 0.088413708 0
0.0019613169 0.083825186 0.08717411 0
0.006063737 0.083342776 0.091242805 0
0.17829731 0.087077126 0.18828005 0
0.042653099 0.086234577 0.13656585 0
0.17969033 0.089427829 0.19025703 0
0.041317903 0.087876797 0.13718186 0
0.0908674 0.089659296 0.1433319 0
0.17975733 0.091614723 0.19018705 0
0.0065641664 0.089668058 0.092984818 0
0.031473808 0.088848516 0.13431785 0
0.00070383772 0.090619788 0.087385796 0
0.001438383 0.092362486 0.088323519 0
-0.0056412928 0.09530279 0.084628686 0
0.0067342259 0.095375873 0.095591716 0
0.044406511 0.096071884 0.14514987 0
0.0053669736 0.09604276 0.094089419 0
0.007734403 0.096699379 0.096916318 0
0.030196927 0.097908303 0.14382385 0
0.046829008 0.096921965 0.14647186 0
0.10291338 0.098482177 0.16267993 0
0.08838442 0.10151301 0.1517359 0
0.17203337 0.10220284 0.18246503 0
0.024995536 0.10150912 0.13421884 0
0.15864138 0.10451985 0.17433901 0
0.0046197549 0.10178919 0.095655322 0
0.060878508 0.10319304 0.15933189 0
0.0678965 0.10687103 0.16542388 0
-0.033513889 0.10581426 0.081737071 0
0.050200116 0.10723507 0.15775387 0
0.052327909 0.10738107 0.1592619 0
0.0045286939 0.10820017 0.098559916 0
0.1258354 0.11156392 0.165729 0
0.011052284 0.10946916 0.10576183 0
0.1434364 0.1136759 0.15530902 0
0.0063568428 0.11270618 0.10257381 0
0.1681904 0.11627486 0.16730303 0
0.048462108 0.11513106 0.16762286 0
0.13074644 0.11794694 0.151806 0
-0.03133519 0.11470424 0.089124665 0
0.014944185 0.11685014 0.11352085 0
0.064903811 0.11716902 0.1752809 0
0.21074441 0.12223675 0.2069311 0
0.2634283 0.12376463 0.25038216 0
0.2519483 0.12426068 0.24014215 0
0.19607541 0.12567578 0.19235009 0
0.21325237 0.12647776 0.20688409 0
0.25696433 0.12698966 0.24341616 0
0.2678653 0.12711063 0.25249121 0
0.0091835447 0.12208717 0.11116783 0
0.18142742 0.12658982 0.17376706 0
0.1983144 0.12743481 0.1916281 0
0.20575839 0.12838678 0.19760409 0
0.24032035 0.12852368 0.22798415 0
-0.027722586 0.12247623 0.097605877 0
0.2314764 0.1312007 0.21871613 0
0.25938433 0.13092965 0.24350716 0
0.27304935 0.13194263 0.2562502 0
0.28748229 0.1315766 0.26974726 0
0.011048909 0.12696417 0.11537683 0
0.016016901 0.12614213 0.11966783 0
0.24232835 0.1329267 0.22779314 0
0.048234887 0.12934606 0.20152588 0
0.050753292 0.13056704 0.20337489 0
0.2005024 0.13420077 0.1886171 0
0.20950642 0.13463378 0.19730811 0
0.0201055 0.13020112 0.12648685 0
0.018674497 0.13087113 0.12478483 0
0.044647101 0.13230005 0.20139287 0
0.18326744 0.13498183 0.17117006 0
0.19629543 0.13594578 0.1837291 0
0.24437739 0.13732672 0.22776215 0
0.27430934 0.13730061 0.25436616 0
0.27883735 0.1387966 0.2585322 0
0.28442132 0.1389686 0.26414219 0
0.2235074 0.13836475 0.20762613 0
0.23983838 0.13947169 0.22162916 0
0.27014935 0.13970362 0.25023919 0
0.27667332 0.13967261 0.25576219 0
0.010616917 0.13403514 0.11984284 0
0.047781598 0.13501506 0.2079159 0
0.18784046 0.1390838 0.17276706 0
0.20465441 0.13889478 0.19008011 0
0.23183039 0.14131871 0.21321514 0
0.2308974 0.13954473 0.21325713 0
0.23744538 0.14096567 0.21899915 0
0.24082538 0.14161469 0.22157113 0
0.25956038 0.14162764 0.2385872 0
0.25805134 0.14086768 0.23725417 0
0.27339038 0.14227061 0.25139919 0
0.01717991 0.13640711 0.12679885 0
0.2219754 0.14127474 0.20470512 0
0.24775636 0.14355168 0.22732216 0
0.27409232 0.14439063 0.2513212 0
0.16655847 0.14183487 0.15489404 0
0.21557444 0.14401475 0.19723614 0
0.23459339 0.14383471 0.21467215 0
0.2337794 0.14539672 0.21330915 0
0.27545336 0.14505064 0.25286722 0
0.29322833 0.14642259 0.26824024 0
0.21056743 0.14505178 0.19106911 0
0.23479937 0.14731573 0.21342412 0
0.26030734 0.14735465 0.23719718 0
0.27702835 0.14879559 0.25197819 0
0.17056248 0.14662184 0.15648805 0
0.19342145 0.14783379 0.17243309 0
0.19706744 0.14690977 0.17724207 0
0.20588644 0.14761877 0.1849221 0
0.21505645 0.14769073 0.19398813 0
0.2572034 0.14970666 0.23281017 0
0.27181536 0.14882064 0.2467442 0
0.13683751 0.14777493 0.14091101 0
0.20562944 0.14949174 0.18345709 0
0.21604043 0.14968076 0.19413613 0
0.23426741 0.15117773 0.21137215 0
0.28690535 0.15254657 0.25943121 0
0.018662911 0.14577511 0.13451585 0
0.17949148 0.14936684 0.16052607 0
0.20684548 0.15120281 0.18344812 0
0.25409141 0.15224965 0.22875017 0
0.28112936 0.1542006 0.25362319 0
-0.001914762 0.14649019 0.12815283 0
0.040138673 0.14987808 0.16977789 0
0.18945247 0.15219381 0.16756909 0
0.21684445 0.15307072 0.19252913 0
0.22044347 0.15380074 0.19555314 0
0.27882537 0.1552026 0.25063023 0
-0.0084769018 0.1491842 0.1301908 0
0.024978906 0.14930514 0.14292185 0
0.1265195 0.15200695 0.14241301 0
0.21415147 0.15615876 0.18788612 0
0.21409944 0.15620676 0.18777213 0
0.21577546 0.15656073 0.18941212 0
0.21578747 0.15657778 0.18952112 0
0.22223544 0.15553975 0.19543612 0
0.24302943 0.15680769 0.21618319 0
0.24813741 0.15637966 0.22173415 0
0.29238239 0.15810458 0.26168826 0
0.19755945 0.15650582 0.17148411 0
0.21366045 0.15770975 0.18631512 0
0.21516746 0.15816872 0.18788113 0
0.24514742 0.15959066 0.21595219 0
0.2805354 0.1609946 0.2493962 0
0.014744617 0.15330213 0.13883685 0
0.024629507 0.15422215 0.14544286 0
0.043697871 0.15591407 0.18116789 0
0.057050422 0.15677105 0.21562889 0
0.17480551 0.1583039 0.15409008 0
0.22815946 0.15925872 0.19962312 0
0.23481046 0.15964773 0.20568115 0
0.23949243 0.16059971 0.21004714 0
0.24279845 0.16096371 0.21337317 0
0.27837038 0.16239159 0.24649522 0
0.057761427 0.15858401 0.21386792 0
0.21458547 0.16146076 0.18512213 0
0.21782245 0.16199173 0.18813813 0
0.23410143 0.16282068 0.20286514 0
0.014219329 0.15845415 0.14183585 0
0.025102407 0.1587621 0.14868687 0
0.18422851 0.1615188 0.15812609 0
0.22067247 0.16420975 0.18916114 0
0.25628442 0.16512869 0.22423819 0
0.27940944 0.16602863 0.24478823 0
0.047312677 0.16134903 0.18392991 0
0.053277835 0.16123101 0.20606592 0
0.12877452 0.16292392 0.14602801 0
0.22967446 0.16529472 0.19771515 0
0.26951641 0.16741361 0.23537819 0
0.018013719 0.16144811 0.14637385 0
0.12739652 0.16458693 0.14647602 0
0.25369143 0.16955668 0.21820419 0
0.30149537 0.17159157 0.26141027 0
0.055327147 0.16578706 0.20780493 0
0.12921152 0.1667369 0.14646502 0
0.17525554 0.16837585 0.14929007 0
0.2189215 0.16891274 0.18501411 0
0.25259441 0.1704727 0.21600418 0
0.2713334 0.17101961 0.2338782 0
0.034481313 0.1668731 0.16412988 0
0.039536901 0.16630007 0.17100887 0
0.17113154 0.16996185 0.14578708 0
0.2224915 0.17085774 0.18695614 0
0.28511944 0.17396159 0.24429423 0
0.2926344 0.17510659 0.24925524 0
0.30177438 0.17497957 0.25824225 0
0.21063252 0.17378077 0.17243513 0
0.22720248 0.17338873 0.19036613 0
0.23786248 0.17420474 0.19924617 0
0.056707062 0.17227803 0.2044069 0
0.034937814 0.17216307 0.16715488 0
0.2137575 0.17731777 0.17251711 0
0.23795548 0.17804271 0.19541016 0
0.035524707 0.17440908 0.16841388 0
0.055939175 0.17559801 0.19983092 0
0.12603256 0.17716295 0.14221601 0
0.25214553 0.17992568 0.20404616 0
0.049080107 0.17772004 0.18479592 0
0.050129399 0.17637607 0.1865389 0
0.16153759 0.1792929 0.13045307 0
-0.011604607 0.17802115 0.18719883 0
0.036795117 0.17784804 0.17065386 0
0.24988949 0.18448667 0.19633518 0
0.26061147 0.18458563 0.20545118 0
0.029488426 0.1810381 0.1679769 0
0.056512885 0.18076205 0.19849391 0
0.26029348 0.18635769 0.20411521 0
0.28151947 0.18765762 0.2223442 0
-0.018503793 0.18166618 0.18333882 0
0.053835198 0.18253602 0.19537391 0
0.17983156 0.18624687 0.13396609 0
0.20057455 0.18666981 0.15288413 0
0.19875556 0.18574882 0.1515951 0
0.21061757 0.18717878 0.16177614 0
0.25403053 0.18868169 0.19796917 0
0.26950446 0.19011661 0.21177422 0
-0.014177397 0.18398818 0.19042581 0
0.18623658 0.18666884 0.14051509 0
0.20966956 0.1885528 0.16045712 0
0.24030751 0.18989174 0.18646514 0
0.26159149 0.19124363 0.20374623 0
0.054489598 0.18697803 0.19608092 0
0.055899106 0.18798605 0.19748293 0
0.17074761 0.18806387 0.12543908 0
0.21864054 0.19118375 0.16694914 0
0.22166954 0.19169576 0.17013614 0
0.24196753 0.1914877 0.18717717 0
0.28048348 0.19409961 0.21932922 0
0.057148598 0.18886006 0.20078291 0
0.19765258 0.19283979 0.14888114 0
0.21858254 0.19297774 0.16719215 0
0.25702447 0.19371071 0.19924319 0
0.31284249 0.19639054 0.24621227 0
-0.017306082 0.18881117 0.18759781 0
0.057271205 0.192233 0.19821292 0
0.15729263 0.19159788 0.11327305 0
0.1947896 0.19317281 0.14624411 0
0.26751551 0.19762468 0.2078182 0
0.22688255 0.19765775 0.17347115 0
0.28064147 0.19963764 0.21760423 0
0.053439617 0.19565505 0.19274491 0
0.16803862 0.19577487 0.12142009 0
0.1857636 0.19788881 0.13658911 0
0.20462756 0.19776776 0.15401211 0
0.21436958 0.1989028 0.16201313 0
0.21592957 0.19942375 0.16354415 0
0.044000737 0.19686107 0.1823639 0
0.1778606 0.19935885 0.12931611 0
0.20244259 0.20052978 0.15135413 0
0.20386457 0.19918975 0.15251112 0
0.22872058 0.20077175 0.17452015 0
0.29021949 0.20414165 0.22467126 0
0.052098837 0.19878902 0.18714492 0
0.15503663 0.20058694 0.10934606 0
0.15743564 0.20000988 0.11159405 0
0.24346854 0.20423469 0.18524019 0
0.25050753 0.20344467 0.19153519 0
0.25372857 0.20497768 0.19395217 0
0.053670026 0.20090701 0.1910859 0
0.15495665 0.20230488 0.10900706 0
0.17112261 0.20370585 0.12184708 0
0.18549162 0.2050548 0.13477311 0
0.23486155 0.20678674 0.17840117 0
0.24886754 0.20808169 0.18914121 0
0.29973748 0.2096636 0.23158626 0
0.14982565 0.2060589 0.10447507 0
0.15660366 0.20549892 0.11030805 0
0.1898786 0.20789886 0.1383751 0
0.20158558 0.2086748 0.14890914 0
0.27298751 0.21087465 0.20985922 0
-0.016874455 0.20576218 0.18936782 0
0.053953357 0.20794702 0.18804093 0
0.18864362 0.20914681 0.13702911 0
0.2130996 0.2104608 0.15897514 0
0.22225259 0.21075976 0.16598015 0
0.30453753 0.2149516 0.23495726 0
0.055219144 0.20828004 0.18958893 0
0.20979461 0.21207376 0.15529916 0
0.26699656 0.21423464 0.20364623 0
0.27131855 0.21580265 0.20748822 0
0.27570152 0.21593066 0.21120022 0
0.30032548 0.21630254 0.23091927 0
0.3149825 0.21734656 0.24275027 0
0.14607367 0.21008891 0.10076506 0
0.16299166 0.21100289 0.11489808 0
0.19026263 0.21226184 0.13878411 0
0.25443655 0.2168377 0.19269422 0
0.25550556 0.21736567 0.19379619 0
0.28525352 0.22047462 0.21775024 0
-0.016955245 0.21257915 0.18960381 0
0.21141863 0.21894075 0.15645015 0
0.2555016 0.21972066 0.19339117 0
0.28587753 0.22237362 0.21798922 0
0.28955048 0.2222656 0.22159326 0
-0.015319746 0.21430416 0.18985084 0
0.053200573 0.21765804 0.18329291 0
0.24217355 0.22100672 0.18107319 0
0.29014856 0.22435664 0.22148526 0
0.3262465 0.22691451 0.2520853 0
0.20802864 0.22092375 0.15228415 0
0.23032862 0.22281173 0.17113316 0
0.25220755 0.22356066 0.18975319 0
0.25623959 0.22387166 0.1935572 0
0.30250952 0.22696757 0.23119026 0
0.058809876 0.22134705 0.18778494 0
0.15876865 0.22067587 0.11008308 0
0.2498036 0.2257227 0.18722118 0
0.31566152 0.23015155 0.24192329 0
0.18311267 0.22452281 0.13030012 0
0.18603164 0.22473879 0.13252012 0
0.19530766 0.22439983 0.14040813 0
0.20657864 0.22612377 0.15030414 0
0.24879459 0.22699971 0.18583319 0
0.3212215 0.23203455 0.2467633 0
0.15878071 0.2251709 0.11029607 0
0.16816567 0.22570288 0.11700509 0
0.19551864 0.22647284 0.14029214 0
0.19993365 0.22756077 0.14413613 0
0.21218362 0.22879678 0.15433116 0
0.31025755 0.23393753 0.23688827 0
0.15510669 0.22594792 0.10616007 0
0.23774563 0.23155472 0.17660017 0
0.27029657 0.23212464 0.20362422 0
0.2734406 0.23420665 0.20604125 0
0.27969354 0.23333964 0.21115825 0
0.3226155 0.23533154 0.24799231 0
0.32953849 0.23565949 0.25370732 0
0.3361755 0.23653151 0.26043838 0
0.32860851 0.23907952 0.25267532 0
0.33274353 0.23923549 0.25668034 0
0.20583063 0.23400879 0.14901315 0
0.21444166 0.23484875 0.15572515 0
0.31223157 0.23873954 0.23794532 0
0.32345152 0.24045852 0.2472403 0
0.32502252 0.24060453 0.24897932 0
0.19592768 0.23530878 0.14022413 0
0.21235764 0.23491877 0.15332215 0
0.26881561 0.23955864 0.20101422 0
0.29453057 0.23986158 0.22254826 0
0.16962469 0.23616484 0.1179511 0
0.25344458 0.23917171 0.18792921 0
0.19015068 0.23841482 0.13424513 0
0.22416066 0.24020475 0.16384618 0
0.23514363 0.2414757 0.17271119 0
0.26921362 0.24253462 0.20099126 0
0.32029957 0.24615355 0.2437873 0
0.33631453 0.2471855 0.25878534 0
0.20341268 0.24138975 0.14558114 0
0.28851959 0.24681659 0.21766526 0
0.14788371 0.24043991 0.098540567 0
0.17449571 0.24234383 0.1220281 0
0.32810557 0.25118858 0.24994034 0
0.33029455 0.25102046 0.25211331 0
-0.021001089 0.23990317 0.17836583 0
-0.017309692 0.24041516 0.18509383 0
0.17005269 0.24291685 0.1175961 0
0.22741066 0.24668273 0.16611817 0
0.25750664 0.24753869 0.19050622 0
0.26555964 0.24802865 0.19788222 0
0.25056964 0.24946068 0.18494122 0
0.33787057 0.25554848 0.25850636 0
0.1664077 0.24610586 0.11369909 0
0.22265665 0.25046176 0.16182014 0
0.23912464 0.25116372 0.17416319 0
0.26108664 0.25340167 0.19290122 0
0.27974859 0.25269359 0.20928726 0
0.31471956 0.25450554 0.2376883 0
0.047633044 0.24856205 0.16625394 0
0.19406068 0.24990879 0.13766015 0
0.28613859 0.25558764 0.21408527 0
0.33952656 0.25849748 0.25987336 0
0.17841071 0.25109383 0.1238841 0
0.33133551 0.25989452 0.25237632 0
-0.021090154 0.25028619 0.17680883 0
-0.019801971 0.25030121 0.18131085 0
0.19809569 0.2538138 0.14088115 0
0.24736966 0.2578547 0.1808522 0
0.24899666 0.25841469 0.1821202 0
0.25282365 0.25842869 0.18582021 0
0.2832616 0.25876963 0.21184425 0
0.33160955 0.26203552 0.25223434 0
0.13816677 0.25386092 0.090457253 0
0.20981871 0.25786579 0.15016016 0
-0.015460555 0.25540519 0.18220082 0
0.024880283 0.25487614 0.1560059 0
0.21309471 0.25978577 0.15243618 0
0.24621466 0.26131368 0.17982121 0
0.2850756 0.26467863 0.21281226 0
0.2895596 0.2644226 0.21675427 0
0.30578661 0.26421261 0.22922328 0
0.31788459 0.26572353 0.23957331 0
0.33829159 0.26712549 0.25709236 0
0.20317669 0.26074979 0.14427316 0
0.25293463 0.26353669 0.18548822 0
0.26310965 0.26452768 0.19411224 0
0.27039668 0.26524666 0.19992426 0
0.30741757 0.26705858 0.23054428 0
0.33459556 0.26879549 0.25301033 0
0.33844656 0.26925653 0.25744632 0
0.047653884 0.25989106 0.15627094 0
0.20093271 0.26298577 0.14207216 0
0.21356471 0.26404378 0.15291417 0
0.24132766 0.26529369 0.1750282 0
0.25482565 0.2664237 0.18659122 0
0.31024161 0.26833656 0.2327323 0
0.13276578 0.26104292 0.08470656 0
0.26942268 0.26900464 0.19914024 0
0.28398663 0.2690506 0.21164225 0
0.28768262 0.26925656 0.21422526 0
0.29486763 0.26937562 0.2205833 0
0.29621661 0.2701236 0.22212727 0
0.31166363 0.27202156 0.23330429 0
0.31307858 0.27117056 0.23467933 0
0.33448458 0.27373052 0.25274533 0
0.14266878 0.26215693 0.092611477 0
0.19021472 0.26515985 0.13238615 0
0.26427561 0.27105266 0.19348222 0
0.33951658 0.27563247 0.25713736 0
0.11531281 0.264476 0.074361831 0
0.16971175 0.26643887 0.11510711 0
0.17118576 0.26714683 0.11619311 0
0.20307973 0.26821479 0.14306417 0
0.20911872 0.26837379 0.14822917 0
0.24085867 0.27071172 0.1740962 0
0.25310671 0.2709727 0.18430822 0
0.31636661 0.27485555 0.23738633 0
0.31983361 0.27619055 0.23970331 0
0.32464263 0.27679855 0.24346532 0
0.26188964 0.27375966 0.19128622 0
0.063016675 0.26352611 0.024989258 0
0.076041147 0.26422507 0.037990075 0
0.16130278 0.2698999 0.1063281 0
0.19058672 0.27275884 0.13114613 0
0.21251073 0.27256376 0.14954616 0
0.22306073 0.27425572 0.15826619 0
0.25234568 0.2747457 0.18272322 0
-0.028893977 0.26763719 0.13670883 0
0.024106219 0.26527721 -0.0083039729 0
0.076295063 0.26817405 0.03612598 0
0.23242369 0.27811176 0.1655982 0
0.19984475 0.27915177 0.13820516 0
0.33813661 0.28735051 0.25412035 0
0.012092434 0.26760516 -0.018382711 0
0.14995679 0.27758193 0.096521884 0
0.27408168 0.28497761 0.20081626 0
-0.0054820776 0.26993021 -0.032916632 0
0.078726381 0.27464405 0.037334483 0
0.085219771 0.27565908 0.042653594 0
0.18064478 0.2816928 0.12204213 0
0.23978271 0.28454372 0.17112823 0
0.25362167 0.28540167 0.18296623 0
0.0014409982 0.27219823 -0.027851423 0
0.044552714 0.27392411 0.0083311144 0
0.096554853 0.27809098 0.051782306 0
0.1697868 0.28184086 0.11264712 0
0.2483267 0.28801772 0.17827921 0
0.27174866 0.28937867 0.19810426 0
0.31403863 0.29093757 0.23336633 0
0.00018891692 0.27230427 -0.028596224 0
0.27036768 0.29041961 0.19695625 0
0.077349693 0.28002703 0.035783086 0
0.08415588 0.28102201 0.041591495 0
0.24020475 0.29053369 0.17104322 0
0.25942272 0.29111364 0.18777724 0
0.33588564 0.29732352 0.25196135 0
0.33831662 0.29645452 0.25385538 0
0.34141859 0.29636052 0.25610441 0
0.26510471 0.29498863 0.19245625 0
0.078116894 0.28461209 0.03652849 0
0.2459207 0.29469472 0.17565422 0
0.25700271 0.2953437 0.18544225 0
0.2596547 0.2951327 0.18792424 0
-0.023315802 0.27989525 -0.048273958 0
0.072084501 0.28625908 0.031044979 0
0.21936974 0.29449576 0.15374418 0
0.041499436 0.28490511 0.0052310228 0
0.049367324 0.28517613 0.011915447 0
0.054793525 0.28535309 0.016386656 0
0.088581696 0.28795904 0.045159496 0
0.13837183 0.29250893 0.085469477 0
0.16726381 0.2945939 0.11061411 0
0.2530047 0.29898769 0.18163222 0
0.26413471 0.30046666 0.19110823 0
0.27653867 0.30071759 0.20131227 0
0.33631462 0.30519551 0.25117034 0
-0.022897495 0.28251326 -0.047686361 0
0.12041185 0.29273799 0.071325749 0
0.27217871 0.30195463 0.19780128 0
0.18959081 0.29963484 0.12878217 0
0.19089179 0.29873079 0.12980115 0
0.21701477 0.30198571 0.1517642 0
0.25836775 0.30289066 0.18605323 0
0.28314972 0.30601463 0.20690729 0
0.2887457 0.3050766 0.21133128 0
0.056086928 0.2925081 0.017312462 0
0.11446887 0.29643095 0.065913036 0
0.14662483 0.29782194 0.092352882 0
0.31536564 0.30939257 0.23363732 0
-0.012750398 0.2886253 -0.040241528 0
0.029772967 0.2928032 -0.0047043818 0
0.16882581 0.30099183 0.11147211 0
0.24106273 0.30730769 0.17131422 0
0.25892073 0.30708265 0.18635926 0
0.29883271 0.30983958 0.21930431 0
-0.0032592751 0.29106024 -0.032123219 0
0.086039111 0.29773703 0.041679405 0
0.21403979 0.30607578 0.14893018 0
0.22590078 0.30703676 0.15861119 0
0.24692273 0.30869669 0.17593123 0
0.24111775 0.31119767 0.17114322 0
0.24689777 0.31089571 0.17597023 0
0.20923778 0.31068379 0.14476219 0
0.26919273 0.31394562 0.19463025 0
0.29495972 0.31548059 0.2159383 0
0.15901984 0.30831191 0.10239411 0
0.2019648 0.31228581 0.13885517 0
0.26924172 0.31598467 0.19458628 0
0.29245472 0.31711864 0.2138173 0
0.29514769 0.31924456 0.21612732 0
0.31330067 0.32003853 0.23136634 0
0.020454191 0.30121419 -0.012288985 0
0.16910985 0.31181785 0.11095112 0
0.25691777 0.31835666 0.18388925 0
0.25572178 0.31662565 0.18303324 0
0.28986675 0.3198486 0.2117383 0
0.31352466 0.32219356 0.23133034 0
0.23297575 0.31803572 0.1641452 0
0.25409478 0.32032469 0.18153325 0
0.26511776 0.31973368 0.19093426 0
0.32615867 0.32423449 0.24198535 0
0.33568066 0.3262195 0.24985436 0
-0.01871006 0.30202028 -0.04549424 0
0.091109827 0.30953705 0.046085615 0
0.10051692 0.30975398 0.053931825 0
0.23736477 0.32100573 0.1673862 0
0.31388575 0.32634056 0.23147832 0
0.31952366 0.32610351 0.23617834 0
0.33217266 0.32730949 0.24684937 0
0.34160167 0.32813144 0.25473037 0
0.15507388 0.31573692 0.098934516 0
0.19451183 0.31896681 0.13188116 0
0.14359787 0.31642294 0.0894292 0
0.18604586 0.31953287 0.12444415 0
0.19067883 0.31992781 0.12836517 0
0.19607383 0.32207876 0.13326818 0
0.19873382 0.32172081 0.13550718 0
0.20996879 0.32295382 0.1446522 0
0.31982672 0.33032653 0.23608333 0
0.14791887 0.31906894 0.092837505 0
0.18950385 0.32308987 0.12710516 0
0.25599974 0.3283177 0.18286827 0
0.3098717 0.33187157 0.22800834 0
0.32877967 0.33361951 0.24362336 0
0.095640525 0.31822205 0.050109226 0
0.1290179 0.31960297 0.077540778 0
0.14096889 0.32084292 0.087379582 0
0.19636583 0.32560885 0.13306816 0
0.21574381 0.32668075 0.14919719 0
0.25152478 0.32883269 0.17907225 0
0.27688175 0.33127564 0.2004803 0
0.3346687 0.33490354 0.24839634 0
0.21591681 0.32873774 0.14925119 0
0.31295773 0.33626357 0.23003134 0
0.32671872 0.3363395 0.24182135 0
0.078782149 0.32074305 0.036145501 0
0.20387584 0.32856181 0.1390892 0
0.23524383 0.33161572 0.16511123 0
0.27405977 0.33545664 0.19828427 0
0.3296597 0.33820954 0.24401039 0
0.1470319 0.3281759 0.091985799 0
0.18336888 0.33045283 0.12176815 0
0.18635285 0.33018777 0.12423116 0
0.18775988 0.33109683 0.12537915 0
0.30717874 0.3401005 0.22545432 0
0.076565571 0.32310206 0.033604302 0
0.10090995 0.32666898 0.054176435 0
0.30715975 0.34169957 0.22518231 0
0.21483885 0.33635378 0.14809921 0
0.040121213 0.32526913 0.0031105597 0
0.14069292 0.33240891 0.086530991 0
0.1434609 0.33227989 0.088729501 0
0.26584581 0.34115365 0.19103727 0
0.3383787 0.34732547 0.25075838 0
0.1453279 0.33533689 0.090237305 0
0.28438678 0.34649459 0.20624129 0
0.2907688 0.34690559 0.21083331 0
0.33042073 0.34860051 0.24470633 0
0.3368527 0.35045552 0.24968137 0
0.02445633 0.32798818 -0.0099295443 0
0.02715373 0.32795316 -0.0075177751 0
0.058534902 0.32948011 0.018587777 0
0.26092982 0.34502468 0.18560225 0
0.28165779 0.34685364 0.20384727 0
0.32774371 0.35118654 0.24241234 0
0.20465685 0.3425788 0.13917617 0
0.29251173 0.3497586 0.21154229 0
0.022484437 0.33083719 -0.011543868 0
0.10242197 0.33694702 0.055247139 0
0.19508186 0.3438898 0.13117516 0
0.20325688 0.34575376 0.1380872 0
0.29212579 0.35189256 0.21211129 0
0.30652672 0.35414958 0.22411333 0
0.34091473 0.35584152 0.25350839 0
0.048060425 0.33550316 0.0097292084 0
0.091913164 0.33925906 0.046302233 0
0.18533988 0.3463968 0.12224116 0
0.22828084 0.34959573 0.15893224 0
0.26422483 0.35201767 0.18857528 0
0.26904079 0.35224065 0.19338027 0
0.34096974 0.35792747 0.25323936 0
0.091958284 0.34126502 0.046336632 0
0.10337897 0.34049702 0.055868838 0
0.20430286 0.3491078 0.13908319 0
0.23116386 0.35200673 0.16087523 0
0.23809785 0.35105273 0.16717924 0
0.25973883 0.35277465 0.18495129 0
0.32154074 0.35876453 0.23687534 0
0.32849076 0.35961455 0.24210037 0
-0.0049971789 0.33519122 -0.035361007 0
0.21813786 0.35303479 0.15039121 0
0.23537283 0.35279474 0.16464423 0
0.24194382 0.35336071 0.17036125 0
0.24632581 0.35477468 0.17362525 0
0.26935583 0.35644266 0.19332026 0
0.29530779 0.35862762 0.21452633 0
0.31779575 0.36110753 0.23452938 0
0.17635591 0.35137883 0.11527116 0
0.23278385 0.35532171 0.16404822 0
0.23478484 0.35473278 0.16458723 0
0.24851182 0.3573707 0.17651623 0
0.25441283 0.35614973 0.18131326 0
0.26648784 0.35865167 0.19114228 0
0.26782984 0.35751262 0.19230628 0
0.051471636 0.34345207 0.011793474 0
0.16301492 0.35121489 0.10447514 0
0.26479578 0.3590596 0.18995227 0
0.29300883 0.36236361 0.2115953 0
0.30999577 0.36383453 0.22525837 0
0.028311752 0.34368518 -0.0069593517 0
0.080027014 0.34796906 0.03638722 0
0.11897797 0.35049495 0.068047866 0
0.18822891 0.35602981 0.12643819 0
0.1955629 0.35669881 0.13101618 0
0.24994382 0.36119768 0.17825024 0
0.069032818 0.34805611 0.026644504 0
0.099207394 0.34995601 0.052660145 0
0.12259497 0.35268399 0.070690073 0
0.17445892 0.35561579 0.11288914 0
-0.0066408478 0.34412223 -0.036252208 0
0.0029737242 0.34508419 -0.028738892 0
0.0082442388 0.3445822 -0.024247482 0
0.077611707 0.35043299 0.034197912 0
0.099247888 0.35202 0.052794743 0
0.33325276 0.37013751 0.22715238 0
0.33602977 0.37065047 0.22750737 0
0.04677625 0.35098812 0.0085361525 0
0.13168097 0.35677093 0.0705503 0
0.31085882 0.36999959 0.20664835 0
0.35081476 0.3727845 0.23979239 0
0.19132793 0.36284581 0.11191118 0
0.31858778 0.37341356 0.21282436 0
0.34929177 0.37444144 0.23861441 0
-0.019851781 0.34920427 -0.046567626 0
-0.015443081 0.34951925 -0.044953723 0
-0.0016275235 0.35060224 -0.035003897 0
0.055255044 0.35423809 0.014372584 0
0.10148203 0.35649505 0.036490254 0
0.20547789 0.36544678 0.1182152 0
0.25989884 0.37034664 0.16304228 0
0.28435484 0.37167767 0.1837783 0
0.29147786 0.37166464 0.18949033 0
0.29424587 0.37343359 0.19187832 0
0.31130281 0.37413761 0.20644735 0
0.16724798 0.36457291 0.085751049 0
0.30044281 0.37590659 0.19705433 0
0.3261638 0.37792352 0.21824737 0
0.33759779 0.3780975 0.2284634 0
0.020700715 0.35375819 -0.033335257 0
0.11453903 0.36121199 0.041549869 0
0.13084301 0.36350995 0.055548791 0
0.19775695 0.36971381 0.11093019 0
0.19918695 0.3685298 0.11206219 0
0.30678782 0.37698862 0.20198534 0
0.3568728 0.38254151 0.24461743 0
0.36494675 0.38258341 0.25164744 0
0.044950195 0.35807714 -0.01590253 0
0.098830841 0.362679 0.028809747 0
0.11775303 0.36382699 0.04417808 0
0.15975299 0.36705986 0.079818338 0
0.18507396 0.37045583 0.10049517 0
0.18664795 0.36933878 0.10204417 0
0.20004892 0.3715958 0.1133382 0
0.20181295 0.37043178 0.11424419 0
0.30928582 0.38110155 0.20421934 0
0.32594684 0.3822006 0.21818237 0
0.23372291 0.37630075 0.14108823 0
0.3453908 0.38421553 0.23465139 0
0.35703284 0.38688248 0.24451342 0
-0.0062752515 0.35797024 -0.059551802 0
0.21992792 0.37719375 0.12948923 0
0.23091093 0.37824479 0.13899124 0
0.26232284 0.37932163 0.16519728 0
0.32720783 0.38513255 0.21972334 0
-0.023008127 0.35844728 -0.073832527 0
0.21589595 0.37848577 0.12604323 0
0.28031287 0.38337064 0.18023729 0
0.29016986 0.3850556 0.18847832 0
0.35607579 0.3908824 0.2435804 0
0.088058263 0.36939207 0.019429738 0
0.34956482 0.39223054 0.23752342 0
0.35342783 0.39100149 0.2412834 0
0.068470791 0.36988911 0.0027110069 0
0.086656973 0.37085301 0.018210933 0
0.088161878 0.37181503 0.019233437 0
0.18695597 0.37956485 0.10156718 0
0.18828098 0.38063082 0.10301219 0
0.22845392 0.38270271 0.13684224 0
0.23114493 0.38265374 0.13916425 0
0.27169988 0.38633871 0.17286029 0
0.27566686 0.38720959 0.17578532 0
0.29144388 0.38787162 0.18916532 0
0.057020612 0.36968517 -0.0063106194 0
0.09488517 0.37399203 0.024854049 0
0.10505506 0.37409502 0.032894261 0
0.17612299 0.38033783 0.092886567 0
0.18827698 0.38259885 0.10278518 0
0.22828594 0.38501874 0.13650525 0
0.22842392 0.3846488 0.13687123 0
0.28046188 0.38977459 0.1802503 0
0.32920787 0.39418954 0.2212674 0
0.34951884 0.39652145 0.23773041 0
0.016553555 0.36823419 -0.041469373 0
0.062818795 0.37370208 -0.0016254473 0
0.20102295 0.38411281 0.11367419 0
0.2502349 0.38922471 0.15480126 0
0.30249587 0.39448458 0.19857533 0
0.30562684 0.39445859 0.20097634 0
0.3587988 0.39865947 0.24547242 0
0.36738777 0.39839244 0.25319245 0
0.017556455 0.3710382 -0.039859962 0
0.085028596 0.37699005 0.015891237 0
0.08887507 0.37741506 0.019375442 0
0.160079 0.3837229 0.079484247 0
0.19844297 0.38629881 0.1109402 0
0.29298592 0.3941066 0.19059631 0
0.34518778 0.39916247 0.23401541 0
0.35084182 0.39949453 0.23881941 0
0.043203332 0.37471813 -0.018664524 0
0.054872923 0.37512612 -0.0087028984 0
0.173389 0.38591889 0.090303555 0
0.22859794 0.39125976 0.13644025 0
0.23159595 0.3908627 0.13943925 0
0.23933093 0.3919507 0.14571926 0
0.34664387 0.40209049 0.23516442 0
0.32717484 0.40086555 0.21874239 0
0.36388883 0.40389544 0.24952143 0
-0.0061822981 0.37432525 -0.059761986 0
0.023181356 0.37690517 -0.035324652 0
0.10957106 0.38393199 0.036840372 0
0.14407803 0.38847893 0.065789111 0
0.23653395 0.39601171 0.14326927 0
0.23941895 0.39570671 0.14534426 0
0.27537391 0.39997166 0.17585231 0
0.36747682 0.40755442 0.25214744 0
-0.0063362531 0.37629727 -0.059922792 0
0.033024848 0.37975615 -0.027582437 0
0.061929625 0.38306209 -0.0030747128 0
0.079474106 0.38340303 0.01131133 0
0.20256698 0.39532277 0.11454821 0
0.23665893 0.39810869 0.14337225 0
0.31220287 0.40388253 0.20676637 0
0.36575586 0.40873039 0.25094143 0
0.011932775 0.38042319 -0.044917963 0
0.14302404 0.39166597 0.064392731 0
0.2845839 0.40453759 0.18335234 0
-0.0057235062 0.38029325 -0.060411483 0
0.172464 0.39525491 0.089366667 0
0.022710979 0.38492024 -0.036248546 0
0.045598142 0.38668016 -0.017000213 0
0.25092894 0.40409368 0.15537629 0
0.25254694 0.40508467 0.15630329 0
0.3030439 0.40946454 0.19838834 0
0.21513198 0.40387979 0.12486322 0
0.24820396 0.40624276 0.15297428 0
0.26292294 0.40880862 0.1650413 0
0.34632689 0.41571146 0.2344684 0
0.091467917 0.394005 0.020831048 0
0.092962615 0.39477205 0.021942252 0
0.10923409 0.39583093 0.03547848 0
0.25109094 0.40815964 0.15522829 0
-0.026634077 0.38497633 -0.076027222 0
-0.0035203397 0.38790822 -0.058472585 0
0.0068065785 0.38849419 -0.049504668 0
0.0084131844 0.38925827 -0.048447363 0
0.015972581 0.38894618 -0.04188095 0
0.062325645 0.3934741 -0.0032362624 0
0.099748723 0.39688006 0.027695164 0
0.23606397 0.40964571 0.14253426 0
0.30291888 0.41622853 0.19803335 0
0.34511682 0.41884348 0.2330654 0
0.36208785 0.42072347 0.24718444 0
0.0064542666 0.39090124 -0.050054472 0
0.056684449 0.39549911 -0.0078288531 0
0.20353201 0.4088648 0.11477421 0
0.25141793 0.41249862 0.15544428 0
0.26221195 0.41439471 0.1641853 0
0.27410793 0.4155446 0.17415531 0
0.28425592 0.41551262 0.18263133 0
