# .PCD v0.7 - Point Cloud Data file format
VERSION 0.7
FIELDS x y z intensity
SIZE 4 4 4 4
TYPE F F F F
COUNT 1 1 1 1
WIDTH 1273
HEIGHT 1
VIEWPOINT 0 0 0 1 0 0 0
POINTS 1273
DATA ascii
-0.020072803 0.043250356 0.22618939 0
-0.036596306 0.043394681 0.19093825 0
-0.0086474866 0.044874445 0.42468166 0
0.0075444281 0.045622066 0.2577939 0
0.0018118992 0.045840144 0.25607964 0
-0.0056458078 0.046058208 0.25297415 0
-0.0052665696 0.044418577 0.25130835 0
-0.0070297234 0.046053395 0.25117084 0
-0.10196206 0.046260245 0.075929627 0
-0.025263209 0.047161054 0.39994308 0
0.0065138116 0.047289383 0.25793588 0
-0.038640328 0.046953648 0.21313344 0
-0.10095952 0.047981527 0.079589367 0
-0.015858781 0.049017701 0.46930096 0
0.0014932975 0.04918354 0.25667673 0
-0.0072955713 0.049284145 0.25455144 0
-0.01063263 0.047958739 0.25007999 0
-0.015796483 0.049158875 0.24782103 0
-0.0070799738 0.049779523 0.42780194 0
-0.0084576756 0.050513726 0.42679828 0
-0.026666656 0.050704565 0.40180883 0
-0.067396 0.052163474 0.15033711 0
-0.0068343133 0.052558433 0.42922735 0
-0.0074881874 0.052280281 0.25754514 0
-0.019254748 0.05180851 0.24517475 0
-0.0089907646 0.053916309 0.42677927 0
-0.01516908 0.053535879 0.24977909 0
-0.098312169 0.055926234 0.079325505 0
-0.016181175 0.054678623 0.46883768 0
-0.028601009 0.05695381 0.2267139 0
-0.040952273 0.05561037 0.21123865 0
-0.016684975 0.057035089 0.24984309 0
-0.039650574 0.058367867 0.18929742 0
-0.046564162 0.058971558 0.17771491 0
-0.046434417 0.059159044 0.17766498 0
-0.0090315193 0.059224933 0.42800543 0
-0.018918391 0.059465472 0.24887924 0
-0.01720003 0.060576342 0.4690077 0
-0.041736692 0.060921244 0.38830799 0
-0.024027973 0.062365428 0.22782142 0
-0.027935304 0.062360354 0.22731729 0
-0.034100916 0.062676229 0.22445278 0
-0.041040421 0.062224358 0.18641472 0
-0.09312401 0.062761784 0.11141336 0
-0.033273619 0.063573055 0.22600839 0
-0.042946711 0.063582174 0.21120578 0
-0.0085556358 0.063496038 0.429389 0
-0.047881976 0.065292895 0.3829962 0
-0.047346912 0.063939318 0.38089302 0
-0.030964687 0.06624344 0.22694528 0
-0.051454864 0.065536357 0.16504259 0
-0.0254829 0.067536227 0.22799788 0
-0.03476195 0.067290612 0.2248324 0
-0.040316656 0.067892507 0.18651593 0
-0.089799628 0.068243317 0.11813021 0
-0.032317374 0.069603503 0.22659084 0
-0.037471451 0.068698518 0.2223713 0
-0.036607981 0.069903411 0.22367351 0
-0.017849397 0.069011591 0.46754608 0
-0.056181129 0.069795683 0.37630486 0
-0.037552878 0.073623337 0.22364625 0
-0.042251408 0.073708452 0.21681301 0
-0.045484066 0.075088732 0.16747986 0
-0.068571724 0.074760713 0.36437234 0
-0.049916595 0.076451235 0.15946178 0
-0.055504128 0.077207446 0.156351 0
-0.056514427 0.077828296 0.15623769 0
-0.064929232 0.076707594 0.37415695 0
-0.041355733 0.077833056 0.21982209 0
-0.038977422 0.077939764 0.18308611 0
-0.084420264 0.078737892 0.12066554 0
-0.039830633 0.080736153 0.17664889 0
-0.040598474 0.079942852 0.1747268 0
-0.080815814 0.08044491 0.12957121 0
-0.039637148 0.081922315 0.17482546 0
-0.060290977 0.083155774 0.15455253 0
-0.07818757 0.082227968 0.36088735 0
-0.040206686 0.084907167 0.16672723 0
-0.045081276 0.083785094 0.16297656 0
-0.05063986 0.084412359 0.16041538 0
-0.061420884 0.084080853 0.15321392 0
-0.062747285 0.085048027 0.1523342 0
-0.010648932 0.082493797 0.42721963 0
-0.078891777 0.085062899 0.36449099 0
-0.079875551 0.083852351 0.36087981 0
-0.059661139 0.086536713 0.15489906 0
-0.061462354 0.085918494 0.15331368 0
-0.079452857 0.087376632 0.12234738 0
-0.052987665 0.087041207 0.15977068 0
-0.058223706 0.087453961 0.15592228 0
-0.061537679 0.087567262 0.15345332 0
-0.088730328 0.087815993 0.35267815 0
-0.051012073 0.089641988 0.16031106 0
-0.066150717 0.090798847 0.14736696 0
-0.065676033 0.089650214 0.14853786 0
-0.070969731 0.090139866 0.14177912 0
-0.077396162 0.09003038 0.12382849 0
-0.063347399 0.091682248 0.15016766 0
-0.075945966 0.091953583 0.12377316 0
-0.01760973 0.0905644 0.46581712 0
-0.051220778 0.093316726 0.16040964 0
-0.06075443 0.092769288 0.15278657 0
-0.099291474 0.092996813 0.34264582 0
-0.062072337 0.095341086 0.15016259 0
-0.064541131 0.095552802 0.14615579 0
-0.070378669 0.096391737 0.13145164 0
-0.072660655 0.095171355 0.12736917 0
-0.017483626 0.092654124 0.46915668 0
-0.018050004 0.092383556 0.46548915 0
-0.012209758 0.093861669 0.4246113 0
-0.059663936 0.096565835 0.15305799 0
-0.059302155 0.099610977 0.15133113 0
-0.061804779 0.098317146 0.14894912 0
-0.068315595 0.098895922 0.13328744 0
-0.095034741 0.09852498 0.35767412 0
-0.058433168 0.1002389 0.1530879 0
-0.061132416 0.10149409 0.14736749 0
-0.064075515 0.10122198 0.14047304 0
-0.062523723 0.10317107 0.14046156 0
-0.011724632 0.10154836 0.4234685 0
-0.090385877 0.10425227 0.3682673 0
-0.017595217 0.10800365 0.47196779 0
-0.1129031 0.11249211 0.34622577 0
-0.12830892 0.11409876 0.31768063 0
-0.10701165 0.11341081 0.35478196 0
-0.10863657 0.11384179 0.35348576 0
-0.018527742 0.11509502 0.47152042 0
-0.12618819 0.11752646 0.33061534 0
-0.12794781 0.11747284 0.32720435 0
-0.014894288 0.11704829 0.42179137 0
-0.13361852 0.12450362 0.32582447 0
-0.014103804 0.12504543 0.42146105 0
-0.012164202 0.12589782 0.42212337 0
-0.13704908 0.12836485 0.32418972 0
-0.13945159 0.12970857 0.3209478 0
-0.0096308738 0.12772304 0.42220393 0
-0.017861776 0.12829971 0.47310176 0
-0.01810861 0.12826104 0.47298205 0
-0.010470871 0.13059749 0.42109141 0
-0.1429185 0.13389066 0.31906569 0
-0.14677341 0.13367043 0.30850738 0
-0.0097724907 0.13397135 0.4200539 0
-0.14386772 0.13562332 0.31913835 0
-0.14543104 0.13629343 0.31740305 0
-0.011513725 0.13542558 0.41905221 0
-0.14726776 0.13776962 0.31395227 0
-0.018018007 0.13503747 0.47460958 0
-0.1505354 0.13954405 0.30901676 0
-0.15168464 0.14008333 0.30724591 0
-0.15383135 0.14139311 0.30353698 0
-0.15373412 0.14367895 0.30749172 0
-0.15566853 0.1432904 0.3018873 0
-0.15607992 0.14504728 0.30370766 0
-0.15199348 0.14806457 0.31535229 0
-0.15560886 0.1486323 0.30919734 0
-0.0073674433 0.14679773 0.41527614 0
-0.1625884 0.15091582 0.29484427 0
-0.0063777715 0.14973935 0.41301337 0
-0.15676329 0.15126184 0.31015414 0
-0.005382169 0.15121259 0.41068026 0
-0.016448308 0.15147513 0.46422789 0
-0.016439289 0.15240753 0.46586871 0
-0.0033481345 0.1630591 0.39285392 0
-0.16872466 0.16615377 0.30045682 0
-0.17135343 0.16810976 0.29553324 0
-0.17623785 0.17154233 0.28730309 0
0.0071276873 0.17138676 0.39731053 0
0.0047192276 0.17282617 0.3953332 0
-0.17981316 0.17779098 0.2855587 0
-0.1815026 0.1779038 0.28067294 0
-0.0031405166 0.17561863 0.38668033 0
-0.1807774 0.17844506 0.28394616 0
-0.18549216 0.18158424 0.27249622 0
0.0080258027 0.17855982 0.40028295 0
-0.18554012 0.18271521 0.2742722 0
0.0068141371 0.18104926 0.39877629 0
0.0033318996 0.18087375 0.39567873 0
-0.11089051 0.18167956 0.35319808 0
0.0042212605 0.18206024 0.39674491 0
0.0025769249 0.18295972 0.39578074 0
-0.18283755 0.18620637 0.2870003 0
0.0038907751 0.18382107 0.39675122 0
0.0024984404 0.18472783 0.39580381 0
-0.17673002 0.18788221 0.29889902 0
0.0044977888 0.18707091 0.39795434 0
0.011957489 0.18716291 0.40700048 0
0.010564052 0.18816218 0.40527266 0
0.0099583194 0.18705697 0.40377384 0
0.0068986937 0.18754463 0.40039912 0
-0.18234722 0.19158916 0.29153994 0
-0.19179262 0.19260651 0.26931262 0
0.013682917 0.18895157 0.40929964 0
-0.18409172 0.19403422 0.2900508 0
4.4077635e-05 0.19085772 0.47296721 0
-0.14368266 0.19476373 0.33085564 0
-0.19041538 0.1973673 0.27904671 0
-0.19353902 0.19615978 0.26964751 0
0.010247469 0.19514327 0.40576541 0
-0.19292711 0.19943038 0.27434662 0
-0.1930851 0.198331 0.2727316 0
0.0071719065 0.1959413 0.40226823 0
-0.19057074 0.20029007 0.28057665 0
0.0040046573 0.19637488 0.44898129 0
0.0017356202 0.19777359 0.44126198 0
0.0046509653 0.19988531 0.39976671 0
-0.14334799 0.20123757 0.33566245 0
-0.15582909 0.20147792 0.32126421 0
-0.19405577 0.20312768 0.27436551 0
-0.1948432 0.20401968 0.27270192 0
-0.19570556 0.20481879 0.27107969 0
-0.19649085 0.20452012 0.26795337 0
-0.19811487 0.20434444 0.26137787 0
0.0043873116 0.20160218 0.39977816 0
-0.19757977 0.20638551 0.26464346 0
0.0028077587 0.20412408 0.39866957 0
-0.19774216 0.20831731 0.26462287 0
-0.00023829937 0.2033945 0.44511175 0
-0.18586335 0.20819913 0.29539603 0
0.00232701 0.20724173 0.39754477 0
-0.060534641 0.20754267 0.38981628 0
-0.15365544 0.20968941 0.33280742 0
-0.15777138 0.20973839 0.3267861 0
0.012456931 0.20674595 0.46898791 0
-0.006225951 0.20819022 0.43441695 0
-0.15986142 0.21053827 0.32375744 0
-0.16319667 0.21035203 0.3166638 0
-0.19510438 0.21217835 0.27421534 0
-0.0064086579 0.20936964 0.43632179 0
-0.18820257 0.21957313 0.29530612 0
-0.19033886 0.22227736 0.28411582 0
-0.19010922 0.22416447 0.28409821 0
-0.18662529 0.22959737 0.29419228 0
-0.17928237 0.23420286 0.30513418 0
-0.18082035 0.23458785 0.30159315 0
-0.19387755 0.23533459 0.2731258 0
-0.19448727 0.23555434 0.269833 0
0.052976191 0.22999202 0.48916033 0
0.043886282 0.22978677 0.4896726 0
-0.1856 0.23664911 0.28661007 0
-0.19180432 0.23711295 0.27620882 0
-0.18162733 0.23987581 0.29079068 0
-0.17450047 0.24131803 0.30305293 0
-0.19303021 0.24212773 0.27144879 0
-0.17225938 0.24217781 0.30664504 0
-0.16672064 0.24413642 0.31524271 0
0.065273337 0.23882318 0.51101512 0
-0.17108387 0.24593219 0.30497059 0
-0.15497755 0.24703823 0.33021522 0
-0.16998906 0.24906722 0.30301899 0
-0.16176529 0.2497462 0.31817117 0
-0.16863948 0.25099608 0.30298465 0
-0.16853972 0.2497863 0.3047981 0
-0.1697159 0.25035098 0.30113104 0
-0.15565726 0.25216353 0.32392544 0
-0.16583192 0.25533998 0.30228782 0
0.001327917 0.25248933 0.45250356 0
-0.14296971 0.25821963 0.3341473 0
-0.16127944 0.25856248 0.30811122 0
-0.17832065 0.2603955 0.27500674 0
0.0018651672 0.25559428 0.4512873 0
-0.13364694 0.25838536 0.34438321 0
-0.25520995 0.26190761 0.28091764 0
-0.12385545 0.26167297 0.35028589 0
-0.21665758 0.26305073 0.30836949 0
-0.23953336 0.26356688 0.29292691 0
-0.26042357 0.26529238 0.27635488 0
0.043320369 0.25934702 0.49309513 0
-0.098974288 0.26361611 0.37103352 0
-0.0016412325 0.26271459 0.44210893 0
-0.15479659 0.26506695 0.35301438 0
-0.045398623 0.26458445 0.40992102 0
-0.10269943 0.26662746 0.37235975 0
-0.0021490939 0.26568758 0.44173777 0
-0.054759931 0.26656502 0.40263951 0
-0.16254264 0.26794526 0.35721618 0
0.069904551 0.26666763 0.5127598 0
0.071088739 0.26836964 0.51280254 0
0.074920684 0.27072099 0.51559222 0
0.074569166 0.27211314 0.51388407 0
0.068338543 0.27444974 0.50544459 0
0.021468669 0.27582276 0.51052475 0
0.053630061 0.27789518 0.50277805 0
-0.070489042 0.30997756 0.43835336 0
-0.28085977 0.32534164 0.26174876 0
-0.28074157 0.33382618 0.26027855 0
-0.26715246 0.36336657 0.27146652 0
-0.24505837 0.36318216 0.29008901 0
-0.27894837 0.36604318 0.27571511 0
-0.29799825 0.36859363 0.26306561 0
-0.28201729 0.36957389 0.27902174 0
-0.28356305 0.36992988 0.27794987 0
-0.10835664 0.37437639 0.40840277 0
-0.052416183 0.37646395 0.44894916 0
-0.084990248 0.37676299 0.43905222 0
-0.091828085 0.37891054 0.43471479 0
0.021759033 0.381924 0.51697099 0
0.052265175 0.381717 0.53567958 0
0.026803415 0.38315699 0.5346303 0
0.073932126 0.4126139 0.57461995 0
-0.22063434 0.43758014 0.32873151 0
-0.0097917244 0.43123856 0.50514436 0
0.017507263 0.46166539 0.52757299 0
-0.30504805 0.48139951 0.25545415 0
-0.095559269 0.49057958 0.43039292 0
-0.2620357 0.51008761 0.29080513 0
-0.14145866 0.51091677 0.39212796 0
-0.27167884 0.54654914 0.28058881 0
0.01660518 0.53189498 0.52345282 0
-0.014081866 0.5478667 0.49668342 0
-0.15359817 0.55605704 0.37955785 0
-0.24446319 0.56204599 0.30307847 0
-0.2227537 0.56999564 0.32019156 0
-0.30469352 0.60054767 0.24961664 0
-0.30478448 0.60603786 0.24964902 0
-0.076680049 0.6110602 0.44035777 0
-0.3058354 0.62673962 0.24747251 0
-0.30574417 0.63056666 0.24744028 0
-0.30503833 0.6416052 0.24699332 0
-0.2969006 0.65108663 0.25446394 0
0.02635067 0.65100104 0.52611315 0
-0.26622882 0.67279661 0.27817908 0
-0.26371661 0.67446429 0.2810494 0
-0.041314922 0.66066003 0.46747836 0
-0.22445676 0.67747062 0.31446153 0
-0.25196123 0.69159621 0.29089591 0
-0.036367886 0.67776221 0.47045523 0
-0.26577628 0.69485456 0.27693275 0
0.31803039 0.70239496 0.45595759 0
-0.13063481 0.6927858 0.39151683 0
-0.022516418 0.69690841 0.48136273 0
-0.093549117 0.70472431 0.43642697 0
-0.033552404 0.7027573 0.47976169 0
-0.026189663 -0.42194566 0.30196485 0
-0.023726277 -0.42003173 0.30645111 0
-0.037640605 -0.41754183 0.2990835 0
-0.048117392 -0.41442338 0.29129547 0
-0.063908339 -0.39563772 0.28434744 0
-0.063909963 -0.38988593 0.28206563 0
-0.062753148 -0.38402772 0.28569677 0
-0.062358908 -0.37585711 0.28197289 0
-0.062347557 -0.37648401 0.26841155 0
-0.06301295 -0.37292424 0.28024995 0
-0.059183586 -0.3679046 0.29602277 0
-0.060374834 -0.35989916 0.2925103 0
-0.060632385 -0.35885295 0.29082468 0
-0.053545196 -0.33724383 0.28965327 0
-0.066582114 -0.32750291 0.27544859 0
-0.054298434 -0.32338706 0.28991339 0
-0.068604648 -0.32244483 0.2737878 0
-0.068407461 -0.31825724 0.27632093 0
-0.059092037 -0.31217819 0.27504316 0
-0.057131097 -0.30639476 0.28127331 0
-0.051976644 -0.29354495 0.27502504 0
0.013770156 -0.28560337 0.31689653 0
0.010022514 -0.27971637 0.31614587 0
0.0024740919 -0.27682817 0.30849838 0
0.0054938644 -0.27558082 0.31030533 0
0.0047267675 -0.27601099 0.30994368 0
-0.00052592903 -0.275406 0.30499336 0
0.00012201816 -0.27362168 0.30496702 0
-0.022125497 -0.2637918 0.4033235 0
-0.0084712505 -0.27157199 0.28311768 0
-0.028588116 -0.26117271 0.40014881 0
-0.032080349 -0.25989145 0.39742163 0
-0.03363882 -0.2592178 0.39536732 0
-0.037683848 -0.25868258 0.38358673 0
0.0045719221 -0.26625314 0.30702683 0
0.00043965876 -0.26691648 0.30160475 0
0.00041379035 -0.26451975 0.29842395 0
5.5283308e-06 -0.26216984 0.29535359 0
-0.00047630072 -0.26177245 0.28927895 0
0.0029840693 -0.25813913 0.30013907 0
-0.041695006 -0.24819231 0.37982249 0
0.0035264194 -0.25296184 0.29833058 0
0.0036318228 -0.25397456 0.29658809 0
-0.041743331 -0.24403594 0.38703093 0
0.0039058849 -0.25192443 0.29656571 0
-0.031551272 -0.23888503 0.41385821 0
-0.032961249 -0.23599489 0.4134379 0
-0.041787062 -0.23377129 0.38715383 0
-0.018030442 -0.23059936 0.4302997 0
-0.038132105 -0.2299946 0.40274629 0
-0.041022085 -0.22980915 0.39284471 0
-0.041215077 -0.23006582 0.38560289 0
-0.030454069 -0.22492126 0.41961402 0
-0.038826533 -0.22486207 0.40163055 0
-0.039309166 -0.22581206 0.39993104 0
-0.039866451 -0.22578298 0.3964771 0
-0.040466391 -0.22576973 0.39284033 0
-0.03997115 -0.22374234 0.39284903 0
-0.039816681 -0.22272061 0.39097729 0
-0.037913945 -0.21573937 0.40005711 0
-0.038329836 -0.21552469 0.38914225 0
-0.037025392 -0.21379924 0.40350005 0
-0.03777916 -0.21467724 0.39828321 0
-0.037748951 -0.21365328 0.40004766 0
-0.033857584 -0.21215613 0.36093667 0
-0.036648393 -0.20924492 0.39281729 0
-0.033745054 -0.21048683 0.37121725 0
-0.033901658 -0.21009514 0.36093944 0
-0.0298342 -0.20610154 0.42252019 0
-0.035945088 -0.20738505 0.39266956 0
-0.035727058 -0.20635858 0.39451486 0
-0.026423551 -0.20291638 0.4284583 0
-0.031608351 -0.20335035 0.36941114 0
-0.032987271 -0.19976196 0.40956411 0
-0.030190911 -0.19817191 0.41958269 0
-0.030080356 -0.19532122 0.41793782 0
-0.032961816 -0.19812997 0.39107358 0
-0.022650082 -0.19354826 0.43408746 0
-0.032867722 -0.19578853 0.4022851 0
-0.033982359 -0.19776922 0.35734206 0
-0.034589414 -0.19671497 0.34836453 0
-0.02488308 -0.19105326 0.3758938 0
-0.025718868 -0.19224334 0.37289646 0
-0.034856971 -0.19162895 0.35085285 0
-0.034758776 -0.19167502 0.34725899 0
-0.023524638 -0.18992203 0.37372103 0
-0.034996174 -0.19062813 0.34549037 0
-0.035571553 -0.18805878 0.33875304 0
-0.02778279 -0.18285669 0.41654173 0
-0.02824194 -0.18113604 0.40985018 0
-0.027741697 -0.18011247 0.41168138 0
-0.037420414 -0.18278411 0.33696219 0
-0.023510862 -0.17664999 0.4277969 0
-0.027337082 -0.17803001 0.41170782 0
-0.026912931 -0.17824851 0.40396246 0
-0.038501918 -0.1797235 0.33859798 0
-0.024020966 -0.17564078 0.42636764 0
-0.02517958 -0.17182881 0.41161892 0
-0.041228566 -0.17271717 0.3375378 0
-0.023261327 -0.1668295 0.41715261 0
-0.024752405 -0.16808745 0.36776441 0
-0.043308135 -0.1690277 0.33084616 0
-0.00013893098 -0.16206962 0.46304762 0
-0.0022812411 -0.1627214 0.46077159 0
-0.013519593 -0.16237885 0.44577926 0
-0.012720913 -0.16344547 0.38429305 0
-0.020129286 -0.15839759 0.42863634 0
-0.019656368 -0.15633923 0.42863089 0
-0.01915326 -0.15532795 0.42683205 0
-0.016333938 -0.14805169 0.43465811 0
-0.016768776 -0.14782721 0.43260729 0
-0.0064693168 -0.14963078 0.39632311 0
-0.014153093 -0.14347628 0.43639156 0
-0.044446968 -0.14507008 0.33021906 0
-0.013157688 -0.13958348 0.43973759 0
-0.013855852 -0.13951609 0.43615666 0
-0.012852244 -0.13754719 0.4397493 0
-0.012181416 -0.13327853 0.43621576 0
-0.010878645 -0.13036256 0.43821913 0
-0.011501968 -0.13131148 0.43633965 0
-0.0012553483 -0.13291997 0.40453565 0
-0.0013382882 -0.13195024 0.40604135 0
-0.0085001886 -0.12552808 0.44394431 0
0.014193468 -0.12353583 0.48287499 0
0.0036245212 -0.12664796 0.40484816 0
-0.0018734857 -0.12647048 0.39893693 0
-0.016167127 -0.12414962 0.37960514 0
-0.018789228 -0.12454247 0.37338203 0
0.004652448 -0.12227352 0.40633208 0
-0.024782151 -0.12094122 0.34433842 0
0.0020026639 -0.11688349 0.46975076 0
-0.0232374 -0.12001371 0.35355163 0
0.0023292378 -0.1148264 0.4701623 0
0.00092438608 -0.11554934 0.46773121 0
-0.0163268 -0.11658721 0.37680918 0
-0.023190424 -0.1177979 0.34993461 0
-0.02357132 -0.11789866 0.34604222 0
-0.017310809 -0.11633015 0.37364247 0
0.0086210817 -0.11431053 0.41168642 0
-0.012053534 -0.11339718 0.3825779 0
0.0096486956 -0.11274023 0.41157988 0
-0.022189844 -0.112712 0.34439722 0
0.010872327 -0.1100373 0.41359317 0
-0.0010558516 -0.10628973 0.44968635 0
-0.021234874 -0.10857198 0.34802216 0
-0.020876016 -0.10750213 0.3537133 0
-0.018980585 -0.10515621 0.3622919 0
-0.020805769 -0.10646934 0.34430453 0
0.015012033 -0.10165779 0.41680363 0
0.0030328333 -0.10225955 0.40386987 0
-0.019991662 -0.10335285 0.34605616 0
0.0060999319 -0.09708786 0.48125696 0
-0.017228536 -0.10094534 0.36642528 0
-0.019019227 -0.098740235 0.35182005 0
0.0076119378 -0.094387449 0.48557314 0
0.003380388 -0.094162859 0.46606097 0
-0.018758733 -0.097905107 0.34991014 0
-0.018610634 -0.097905219 0.34618405 0
0.0026801527 -0.092060499 0.4736149 0
0.015897982 -0.09504097 0.41576344 0
-0.017968517 -0.095829308 0.34619141 0
0.02001594 -0.093796767 0.41837093 0
-0.015072256 -0.094190829 0.3679609 0
0.0021739975 -0.089103118 0.47497594 0
-0.0093769953 -0.091009498 0.38245001 0
0.0039871931 -0.089573026 0.40375948 0
-0.011710055 -0.090490103 0.37625372 0
-0.015964258 -0.090725482 0.35940066 0
-0.013698965 -0.088155545 0.36596009 0
0.025144368 -0.08102905 0.41983509 0
0.022220984 -0.081601389 0.41798508 0
-0.0071334094 -0.079088375 0.37932834 0
-0.0083724335 -0.078966454 0.37601435 0
-0.001828216 -0.073512852 0.47673076 0
-0.0070111603 -0.074687883 0.37537947 0
-0.0098301694 -0.0751063 0.36133456 0
0.025161996 -0.072811313 0.41993123 0
-0.0089652538 -0.07312192 0.36118922 0
-0.0095365047 -0.073331103 0.34160528 0
-0.0028194562 -0.069384359 0.47303066 0
0.024527751 -0.07116697 0.41915509 0
-0.0084117949 -0.070195325 0.34735769 0
-0.0084774196 -0.070142061 0.34749147 0
0.016598433 -0.065621026 0.41429994 0
0.018245228 -0.06336166 0.41498095 0
-0.0035295114 -0.06423638 0.37521988 0
0.005882889 -0.061539639 0.40111554 0
-0.003423661 -0.062168956 0.37522557 0
-0.0045081973 -0.062182419 0.36447501 0
-0.0043901429 -0.063237026 0.36628571 0
-0.0049007609 -0.063199699 0.3590717 0
-0.0049146488 -0.063177824 0.35541558 0
-0.005201906 -0.05868534 0.47484177 0
-0.0033723712 -0.060105015 0.37521824 0
-0.0042831525 -0.060112905 0.3644616 0
-0.0041902512 -0.061154258 0.36626327 0
-0.003187485 -0.060891088 0.34158239 0
0.014486812 -0.058371056 0.41201228 0
-0.0041206107 -0.059043206 0.36262974 0
-0.0034600869 -0.059161358 0.34810674 0
-0.0036175177 -0.059945222 0.34317634 0
0.022209875 -0.057121366 0.41777909 0
0.019879162 -0.056719098 0.41582638 0
0.01855129 -0.055699661 0.41493741 0
0.015728518 -0.055568792 0.41311017 0
-0.0029908642 -0.055934269 0.3785224 0
-0.0034072399 -0.054890692 0.37673381 0
-0.0049984455 -0.054798562 0.36263609 0
-0.0067823902 -0.051293302 0.47286034 0
0.020465814 -0.053542104 0.41655183 0
0.018190309 -0.053878002 0.41457742 0
-0.0070276931 -0.049188811 0.47285101 0
0.021687083 -0.052315909 0.41748279 0
-0.0053503439 -0.051729947 0.35496539 0
0.020977527 -0.050527364 0.41774109 0
0.017769851 -0.04744773 0.41555774 0
0.015642375 -0.048195027 0.41323304 0
-0.0052203611 -0.048496775 0.36971292 0
-0.0074486062 -0.043920528 0.47093844 0
-0.0053116679 -0.045374315 0.37153691 0
0.015592054 -0.041678298 0.41563684 0
-0.0027951151 -0.04175435 0.38712367 0
-0.0056554005 -0.041318048 0.36433682 0
0.012459897 -0.0400584 0.41337404 0
-0.003769204 -0.038782261 0.38533175 0
-0.0053978711 -0.038113464 0.37679946 0
-0.005951643 -0.038249698 0.36229819 0
-0.0078428388 -0.03447092 0.47654822 0
0.014322042 -0.036626969 0.41674876 0
0.010531567 -0.036326844 0.41357622 0
-0.0024476945 -0.036604784 0.3917034 0
-0.0046371892 -0.035387509 0.38402891 0
-0.0052572936 -0.03559969 0.38043812 0
-0.0092865005 -0.031980809 0.46994069 0
0.014185444 -0.033749983 0.41856188 0
-0.0041712672 -0.033318669 0.38756746 0
-0.0059615225 -0.035096038 0.37492916 0
-0.0064218342 -0.035135873 0.37136847 0
-0.0063750446 -0.035185676 0.36392465 0
0.016145602 -0.03229408 0.42065346 0
-0.0059118122 -0.03161386 0.38049549 0
-0.0058463588 -0.03075115 0.38219762 0
-0.0069290549 -0.030932898 0.36775783 0
-0.0074454248 -0.029005714 0.35303026 0
0.012497358 -0.026839921 0.41979071 0
-0.0026633143 -0.027822498 0.39578208 0
-0.0070556924 -0.02662936 0.37864569 0
-0.007502988 -0.027845396 0.36951622 0
-0.0077287257 -0.026852317 0.36039278 0
-0.0079245642 -0.026932808 0.35303918 0
0.011190042 -0.023654491 0.42015603 0
-0.010622427 -0.020495126 0.46814677 0
-0.0071009323 -0.021383399 0.38397318 0
-0.0079369843 -0.022592148 0.3750369 0
-0.0079662204 -0.022611214 0.37144494 0
-0.0085909739 -0.019548606 0.36599642 0
-0.0088616982 -0.019565346 0.35852656 0
0.010197483 -0.016772853 0.42126662 0
-0.0084095746 -0.017306359 0.38042042 0
-0.011248417 -0.013537815 0.47170678 0
0.011788197 -0.015573258 0.42385349 0
0.0089768022 -0.01511963 0.42144176 0
-0.00929223 -0.014343348 0.3677344 0
0.0093876645 -0.01399616 0.42239049 0
0.0087341815 -0.01231367 0.42230728 0
-0.0067082793 -0.011416353 0.39607432 0
-0.0091037527 -0.010995479 0.3839635 0
-0.0096538663 -0.011192378 0.36561841 0
-0.0093828961 -0.012222793 0.36381495 0
-0.0099422112 -0.011470439 0.35218266 0
-0.052537382 -0.012682783 0.1273341 0
-0.011574104 -0.0082989633 0.46625939 0
-0.009898223 -0.010152847 0.36021182 0
-0.010115966 -0.010421625 0.35032102 0
0.0082491487 -0.0075504389 0.42354709 0
-0.0067728013 -0.0087632425 0.39721748 0
-0.073615551 -0.0095272744 0.11441983 0
-0.090321451 -0.0091290288 0.089604944 0
0.0082913116 -0.0061446261 0.42342976 0
-0.0089651272 -0.0068298439 0.39124075 0
-0.010155156 -0.0069838548 0.36196172 0
-0.010104977 -0.0059853359 0.34924108 0
0.0036652908 -0.0077627581 0.20638806 0
-0.09204264 -0.0076099141 0.089593537 0
0.0090275779 -0.0049325181 0.42455098 0
-0.0046595261 -0.0036977481 0.40717277 0
-0.061781321 -0.0060618361 0.13095178 0
0.0088229403 -0.002032903 0.42591512 0
-0.0050199702 -0.0018938927 0.40709585 0
-0.011037931 -0.0004743333 0.38806316 0
-0.011203155 -0.00067049265 0.38415506 0
-0.011170033 -0.00071009086 0.38039818 0
-0.010145374 -0.00074752467 0.35460466 0
0.039617151 -0.0036419053 0.24058577 0
0.0055396482 0.00088495482 0.42361748 0
-0.0083845481 0.0011808737 0.4006066 0
-0.012013115 0.0029146289 0.47157726 0
-0.01201361 0.0024118058 0.38241059 0
-0.094947241 0.0029031567 0.09804409 0
-0.0063626468 0.003987988 0.40714508 0
0.034815691 0.0029298295 0.2469946 0
-0.053030245 0.002726584 0.14825334 0
-0.0078692436 0.0065476513 0.4056873 0
-0.0093242228 0.0062315688 0.40233436 0
-0.012054015 0.0068140365 0.39026394 0
0.029276997 0.0038401876 0.24523112 0
0.024803683 0.0046321731 0.24014965 0
-0.0098152459 0.0050021699 0.21230619 0
-0.10171387 0.0053145844 0.079542182 0
-0.011098623 0.0073548863 0.39733008 0
-0.012465861 0.0077461116 0.36862576 0
-0.10167664 0.0082171373 0.084328286 0
0.0018200949 0.010159027 0.42368868 0
-0.011377621 0.009298604 0.39731151 0
-0.013428643 0.0091685168 0.37977189 0
-0.010167617 0.008998136 0.34806979 0
0.034568325 0.007511931 0.24872813 0
0.0079756752 0.008285325 0.23202217 0
-0.084117308 0.0087724486 0.12277671 0
-0.089599341 0.009416189 0.11367533 0
-0.10169065 0.0093969349 0.086125702 0
-0.10244417 0.0092046969 0.082660787 0
-0.012764756 0.011147091 0.47217563 0
-0.011238664 0.010365068 0.39903769 0
-0.011257757 0.010487607 0.39901716 0
-0.013167866 0.011061415 0.39029437 0
-0.10095464 0.010436471 0.087703504 0
-0.011923827 0.012525135 0.39903429 0
-0.012446463 0.013374553 0.39729568 0
0.034399718 0.011987797 0.25645822 0
0.033305489 0.010853234 0.25259978 0
0.029521726 0.011221943 0.25072289 0
-0.10270126 0.013938896 0.079137519 0
-0.10249329 0.012486415 0.079000324 0
0.0017292351 0.015142124 0.42483932 0
-0.012396924 0.014458357 0.39899784 0
-0.013020776 0.015333295 0.3972792 0
-0.013185367 0.014277753 0.395518 0
-0.015089542 0.015428209 0.37978354 0
0.0041275844 0.016138796 0.42723173 0
0.031721674 0.014837237 0.25417262 0
-0.029777076 0.015642218 0.18067157 0
-0.016421128 0.018825999 0.38281599 0
-0.015922368 0.017765615 0.38091448 0
-0.00046803057 0.018178979 0.23605879 0
-0.097252831 0.019348741 0.10087943 0
-0.016451392 0.019952388 0.38459894 0
0.027747333 0.017932916 0.25457865 0
-0.09298975 0.019914471 0.11878385 0
-0.013618626 0.021235803 0.47047371 0
-0.017076135 0.020916291 0.3828249 0
-0.017202191 0.021971388 0.3846952 0
0.0072591379 0.020517472 0.24155964 0
-0.025717806 0.020874934 0.18969621 0
-0.098888911 0.023016291 0.097248115 0
-0.015975196 0.023635913 0.3944903 0
-0.016694494 0.02411175 0.39185548 0
0.024082683 0.022936301 0.25715694 0
-0.099284373 0.024006143 0.092355587 0
-0.10331933 0.023944082 0.077318728 0
-0.10302524 0.024912527 0.078951471 0
0.0024152398 0.024879988 0.42908627 0
-0.017889168 0.02515305 0.38660929 0
-0.099199191 0.025051199 0.10074594 0
-0.10141055 0.025874734 0.086015157 0
-0.016561911 0.02669061 0.39633787 0
-0.03114349 0.026200483 0.21169309 0
-0.018862754 0.029311748 0.38639909 0
-0.019433293 0.029203299 0.38280776 0
-0.032084379 0.028129051 0.21170089 0
-0.032916199 0.028657738 0.2101399 0
-0.038612604 0.028488765 0.18111306 0
-0.04025045 0.029012693 0.17994049 0
-0.10184731 0.028783575 0.084617771 0
-0.015849531 0.031104479 0.40332779 0
-0.01906047 0.030291697 0.38888779 0
-0.019952293 0.030112207 0.37354088 0
0.025602207 0.029269453 0.2606948 0
-0.10400526 0.031110296 0.077793583 0
-0.020180844 0.032126822 0.37729591 0
-0.029533587 0.031383306 0.21844213 0
-0.034556892 0.031565815 0.2080736 0
-0.10107052 0.032727838 0.087992318 0
-0.013059992 0.033773366 0.41197351 0
-0.020473097 0.033215903 0.38321528 0
-0.035383251 0.033447374 0.20825753 0
-0.014755026 0.0349853 0.46732643 0
-0.00048329681 0.035709731 0.42991301 0
-0.018193174 0.035876509 0.40140837 0
-0.021845773 0.036382064 0.3734206 0
-0.033593778 0.035580505 0.19265695 0
-0.10425777 0.036266476 0.076125316 0
-0.019998096 0.037400544 0.39802739 0
-0.013532389 0.037139438 0.24146388 0
-0.011416931 0.0381204 0.23009636 0
-0.10422122 0.038293 0.076141901 0
-0.037739255 0.040349416 0.20651563 0
-0.086116143 0.040829964 0.13014573 0
-0.09913259 0.040385906 0.10853971 0
0.026124075 0.039794244 0.26701733 0
-0.10012916 0.042440522 0.090842567 0
-0.02279577 0.043423917 0.40148872 0
-0.027827211 0.043120854 0.38447228 0
-0.027175166 0.041892309 0.38251546 0
0.026107073 0.042636976 0.26751158 0
0.015501566 0.042914975 0.26293531 0
-0.099801987 0.043929353 0.10383806 0
-0.0025189072 0.044342265 0.25364539 0
-0.017731369 0.044934683 0.24379887 0
-0.038673475 0.045699008 0.21137111 0
-0.024217516 0.045329686 0.39987481 0
-0.024492111 0.046655808 0.40230796 0
0.018519878 0.045596771 0.26800588 0
-0.01875915 0.046871454 0.24380368 0
-0.099425025 0.047562063 0.086495787 0
-0.10144153 0.048288111 0.07587976 0
0.01491604 0.047663499 0.26562628 0
-0.019341558 0.048775587 0.24376541 0
0.0069220439 0.048946869 0.25926632 0
-0.097584039 0.052073013 0.10073908 0
-0.09825284 0.05112379 0.099088147 0
-0.0039922744 0.051168878 0.43142727 0
-0.03432196 0.051370531 0.38925534 0
-0.037734143 0.05114327 0.37623283 0
-0.0033295453 0.052343328 0.25624388 0
-0.096971393 0.052941397 0.10275221 0
-0.098766327 0.052746333 0.081117712 0
-0.096639335 0.055337541 0.086647227 0
-0.0071873702 0.054948166 0.25590903 0
-0.0049865544 0.056402512 0.43139127 0
-0.039014183 0.057277858 0.38743705 0
-0.042060956 0.057581764 0.38042405 0
-0.010416046 0.057107579 0.25541881 0
-0.037446711 0.057991564 0.19239309 0
-0.09367805 0.057894003 0.11463052 0
-0.095479801 0.058908224 0.10272669 0
-0.012930267 0.059109349 0.252343 0
-0.03751957 0.059438601 0.21970291 0
-0.094756469 0.059878521 0.10445402 0
-0.043849133 0.060727861 0.3825078 0
-0.0030436367 0.060145546 0.25660571 0
-0.042323738 0.0605723 0.209362 0
-0.038581699 0.060903233 0.19116254 0
-0.039218348 0.061854202 0.18958457 0
-0.093030795 0.063154526 0.090525225 0
-0.0067780986 0.062597454 0.25535145 0
-0.093068846 0.06443581 0.10737175 0
-0.093428373 0.063367367 0.10548972 0
-0.046173569 0.063596815 0.38297698 0
-0.092436209 0.065600455 0.083106287 0
-0.052934282 0.065832473 0.37420714 0
-0.091488518 0.068262428 0.10357979 0
-0.050617032 0.067360006 0.38098818 0
-0.026370369 0.067575887 0.24336028 0
-0.091048196 0.069198139 0.10938444 0
-0.056938708 0.06827829 0.37200299 0
-0.021738548 0.069865033 0.24974786 0
-0.0256138 0.069803059 0.24643095 0
-0.043856308 0.069644287 0.210943 0
-0.088235535 0.070904009 0.076644987 0
-0.0066237375 0.069587484 0.43107575 0
-0.044449937 0.072683081 0.20918261 0
-0.039578944 0.071696267 0.18640648 0
-0.047492236 0.072427139 0.16562475 0
-0.023422658 0.072342649 0.24885152 0
-0.027054805 0.072558746 0.24493526 0
-0.044430956 0.073646091 0.21077828 0
-0.038003318 0.074476071 0.18770227 0
-0.0870369 0.0753702 0.11637587 0
-0.027768925 0.076049291 0.22967173 0
-0.084466957 0.077513739 0.12258208 0
-0.007239379 0.07540568 0.43040296 0
-0.0079927295 0.075407408 0.42928922 0
-0.052400552 0.076152928 0.38955864 0
-0.033527344 0.077621937 0.2268004 0
-0.044946954 0.076565579 0.2091434 0
-0.08379975 0.078293048 0.12438827 0
-0.032540958 0.079416774 0.22715785 0
-0.043803614 0.07844466 0.21535949 0
-0.079993576 0.079248153 0.34848642 0
-0.044826858 0.081223324 0.21381848 0
-0.044817455 0.081282116 0.2139042 0
-0.028812509 0.08232116 0.22993007 0
-0.082925498 0.083156042 0.11697193 0
-0.038288061 0.083886884 0.22491151 0
-0.045510959 0.085136622 0.21383522 0
-0.036295135 0.085464321 0.17871299 0
-0.037335806 0.085754812 0.16858907 0
-0.090636559 0.085972846 0.34336826 0
-0.04056723 0.08558923 0.22250092 0
-0.045950912 0.086011916 0.21213748 0
-0.036110401 0.08669813 0.17667535 0
-0.044325978 0.087194286 0.21690145 0
-0.038672768 0.088497855 0.16609235 0
-0.07752724 0.087598071 0.36982602 0
-0.046168447 0.089012615 0.21385811 0
-0.03374321 0.091163948 0.17230111 0
-0.070275851 0.090833575 0.088976644 0
-0.046629868 0.091910593 0.16307779 0
-0.018055242 0.090575792 0.46228021 0
-0.038890082 0.09409567 0.16634433 0
-0.073393948 0.094964549 0.12519144 0
-0.047656231 0.096781619 0.21032289 0
-0.067711823 0.098057196 0.13697396 0
-0.10773256 0.098240525 0.33428621 0
-0.066097818 0.099993609 0.13698249 0
-0.068532251 0.099751934 0.12922566 0
-0.1055335 0.09975072 0.34296551 0
-0.05325412 0.10171277 0.15516284 0
-0.034810413 0.1036118 0.16867465 0
-0.018654529 0.10034821 0.46548763 0
-0.037303954 0.1046757 0.16682304 0
-0.040750887 0.10431786 0.16496527 0
-0.058456607 0.10439027 0.14920121 0
-0.053708415 0.10713828 0.15310666 0
-0.056135282 0.10754859 0.14733592 0
-0.059207439 0.10709279 0.11336607 0
-0.11741573 0.105561 0.32824391 0
-0.11884099 0.10569526 0.32162791 0
-0.007660415 0.10590744 0.42447004 0
-0.12177199 0.1099203 0.32588336 0
-0.12300443 0.11058546 0.32388991 0
-0.053271808 0.11269101 0.14539643 0
-0.018531114 0.10892212 0.46710712 0
-0.083809815 0.1100162 0.37831339 0
-0.017437093 0.11100119 0.4736203 0
-0.019594718 0.11023882 0.46408567 0
-0.050716311 0.11627357 0.14532511 0
-0.12653226 0.11440015 0.32371145 0
-0.12977612 0.1157155 0.31763607 0
-0.13000801 0.11523434 0.31295624 0
-0.019477602 0.11554254 0.46622282 0
-0.046427097 0.12180641 0.12322198 0
-0.0087600835 0.11860567 0.42378151 0
-0.13324618 0.11991469 0.31754884 0
-0.019228831 0.12077169 0.46798119 0
-0.1398748 0.12662224 0.31382477 0
-0.018208247 0.12535414 0.4714722 0
-0.018783908 0.12801887 0.46615341 0
0.066248 0.13067941 0.45507082 0
-0.0057355091 0.13588332 0.42185238 0
-0.15141562 0.13887759 0.30548117 0
-0.0042177811 0.13750476 0.42169639 0
-0.018376961 0.13734353 0.46065128 0
-0.0076705366 0.14244173 0.41732484 0
-0.017609701 0.14375578 0.47414324 0
-0.16185206 0.14881319 0.29236436 0
-0.16354439 0.14990582 0.28498119 0
-0.1660123 0.15262318 0.28299218 0
-0.00059269369 0.15255602 0.414455 0
-0.16755994 0.15594888 0.28873998 0
-0.16826048 0.15681474 0.28681445 0
-0.1693926 0.15727773 0.28099084 0
-0.17024937 0.15956168 0.28489101 0
-0.00074636936 0.15810215 0.40648007 0
-0.16304109 0.16004533 0.30502164 0
-0.02299555 0.15973957 0.40146327 0
-0.1665922 0.16268301 0.30039641 0
0.0019996762 0.16199334 0.39895624 0
-0.014472939 0.16621147 0.4675158 0
-0.015892446 0.1646309 0.46428055 0
0.01199092 0.16950308 0.40372282 0
0.0068968013 0.16943742 0.39705041 0
0.0077744499 0.17023097 0.39859045 0
-0.1796404 0.17349486 0.27861583 0
-0.18073478 0.17543809 0.2786136 0
-0.014112849 0.171967 0.46421576 0
0.010090157 0.17677915 0.40291497 0
0.012636341 0.17810757 0.40705985 0
0.009188883 0.17760253 0.40158865 0
-0.0086354949 0.17748305 0.47113141 0
-0.18331423 0.18159868 0.2807062 0
-0.0075186826 0.17845581 0.47222754 0
-0.17348433 0.18315972 0.30161172 0
-0.18508288 0.18526246 0.28069758 0
-0.18823409 0.18601727 0.2709296 0
-0.19041345 0.18852295 0.26563734 0
0.013075039 0.18636507 0.40819752 0
-0.19175863 0.19137917 0.26745316 0
0.017705739 0.18949805 0.41433832 0
-0.19349834 0.19295239 0.25997981 0
-0.19414407 0.19498943 0.26365304 0
-0.0012662038 0.19167526 0.46995717 0
0.011208624 0.19615144 0.40699145 0
-0.10420747 0.19754426 0.36248368 0
-0.13566141 0.19731565 0.33934751 0
-0.10337025 0.20237765 0.37021372 0
-0.19875382 0.20616959 0.25795496 0
0.0095134899 0.2014457 0.47698522 0
-0.031867616 0.2055497 0.39435962 0
-0.095217481 0.20480819 0.37502789 0
-0.15726496 0.20630699 0.32038817 0
-0.1595974 0.20928925 0.32192594 0
-0.0024671666 0.20811558 0.44347462 0
-0.19122469 0.21120133 0.282498 0
-0.0019872636 0.20938715 0.44597572 0
-0.040373027 0.2121779 0.40866002 0
-0.19948213 0.21593359 0.25114235 0
-0.0088587478 0.21395952 0.43646032 0
-0.042700682 0.2147668 0.41035056 0
-0.18856122 0.21960966 0.29191709 0
-0.19852969 0.22149451 0.26454309 0
-0.17739618 0.22029448 0.30967081 0
-0.18822849 0.22252363 0.29363081 0
-0.19795136 0.22801289 0.26251447 0
-0.19544394 0.23062894 0.2714656 0
-0.19535789 0.23567609 0.26657185 0
-0.16681778 0.23955722 0.31855735 0
-0.19451669 0.24129964 0.26299718 0
-0.19324397 0.24551295 0.26663563 0
-0.1928108 0.2474966 0.26581356 0
-0.17187178 0.24772708 0.29950589 0
-0.16091383 0.26145461 0.30540502 0
-0.1220852 0.26167962 0.35081902 0
-0.17967495 0.26418933 0.28007644 0
0.0050999597 0.26032934 0.45054153 0
-0.12706488 0.26378736 0.35043889 0
-0.14502755 0.26624447 0.3715876 0
0.064657129 0.27324349 0.50554067 0
0.057092946 0.27630135 0.50494051 0
0.083528996 0.27781865 0.52190125 0
0.031499051 0.27640867 0.5180254 0
0.078390568 0.2793161 0.53885221 0
-0.27118912 0.28904352 0.27116129 0
-0.27344447 0.36250329 0.26595631 0
-0.24013565 0.36728925 0.29775324 0
-0.28245348 0.36959493 0.27866983 0
-0.18742976 0.36959586 0.3426342 0
-0.27349842 0.36974809 0.28527695 0
-0.17623377 0.37237987 0.35931653 0
-0.12991816 0.374192 0.40288085 0
-0.055726446 0.37465334 0.44735688 0
-0.087547511 0.37531936 0.42509782 0
0.022914007 0.38023898 0.51478803 0
0.061685085 0.38320443 0.55318666 0
-0.30408418 0.39461383 0.26046357 0
-0.30483148 0.44427642 0.25727579 0
-0.19513437 0.45396024 0.349098 0
-0.30565745 0.47401771 0.25605658 0
0.090766579 0.4871687 0.58752614 0
-0.30490783 0.51902854 0.25400299 0
-0.30663651 0.54377311 0.25212762 0
-0.30602694 0.62785351 0.24591656 0
-0.30618846 0.65427464 0.24481894 0
-0.30607197 0.65671098 0.24329394 0
0.3201631 0.69634265 0.45043373 0
0.31818143 0.69854695 0.4503538 0
-0.3042084 0.67891121 0.24232629 0
-0.24459817 0.69288349 0.29713172 0
-0.27399725 0.69859678 0.27851185 0
-0.2771982 0.69940203 0.2735337 0
0.059564821 0.69199789 0.55179441 0
-0.0094582457 0.70404309 0.50724369 0
-0.010747196 0.70426273 0.50579435 0
-0.062022217 -0.40197429 0.26924887 0
-0.063407138 -0.39785895 0.26931205 0
-0.063901626 -0.39889809 0.26757598 0
-0.062254388 -0.39761573 0.26249433 0
-0.061806779 -0.39186251 0.29429558 0
-0.06121739 -0.39306754 0.25723934 0
-0.060609005 -0.39206967 0.25555158 0
-0.064007126 -0.38971922 0.27155679 0
-0.062572382 -0.38985264 0.26478067 0
-0.0599944 -0.39129612 0.25401372 0
-0.062163066 -0.38620099 0.27530217 0
-0.061932974 -0.38423261 0.26821914 0
-0.061705768 -0.38330829 0.27003989 0
-0.061983734 -0.38039368 0.27176896 0
-0.061706029 -0.38044074 0.26837599 0
-0.062743083 -0.37699473 0.27299303 0
-0.061395057 -0.37555102 0.26335481 0
-0.062713131 -0.37085217 0.27397847 0
-0.062324859 -0.36228487 0.26907074 0
-0.061816629 -0.36236188 0.26587281 0
-0.059424683 -0.36007378 0.25794131 0
-0.061189391 -0.35856977 0.26935053 0
-0.058625586 -0.35814223 0.25770122 0
-0.065364078 -0.33146518 0.2754308 0
-0.068903245 -0.3215096 0.27187771 0
-0.068123594 -0.31963813 0.27206999 0
-0.065330356 -0.31899354 0.27063867 0
-0.058665469 -0.30728453 0.27333397 0
-0.056543525 -0.30150783 0.27624398 0
-0.046419535 -0.30249438 0.25536042 0
-0.054621518 -0.29765451 0.27288374 0
-6.8977475e-05 -0.28270262 0.37159267 0
-0.049431246 -0.28488412 0.26943889 0
-0.010734655 -0.27430874 0.274636 0
-0.0083501786 -0.27179527 0.27814159 0
0.0045134276 -0.26522854 0.31295031 0
-0.03812205 -0.2575886 0.38566408 0
-0.039220002 -0.25560948 0.37850964 0
-0.038418986 -0.25176486 0.39410117 0
0.00083669275 -0.26006866 0.28544959 0
0.0038217753 -0.25814465 0.30368078 0
-0.041427292 -0.24523124 0.37823606 0
-0.041331705 -0.24335472 0.37833056 0
-0.04121127 -0.24439134 0.37661716 0
-0.04048961 -0.24447376 0.37351915 0
0.012361974 -0.2498899 0.27417332 0
0.01456105 -0.24642062 0.27076262 0
-0.041337512 -0.23317237 0.3815029 0
-0.039070707 -0.22210316 0.37849104 0
-0.038619276 -0.2200256 0.38188052 0
-0.035273518 -0.22119521 0.36629403 0
-0.035368532 -0.22110479 0.36617568 0
-0.034064531 -0.22039731 0.36117783 0
-0.034467399 -0.21833026 0.36458075 0
-0.03508025 -0.21625943 0.36820278 0
-0.033819951 -0.21736082 0.35923204 0
-0.033406112 -0.21717861 0.35542497 0
-0.031978633 -0.21691288 0.34868306 0
-0.033355046 -0.2160653 0.35370493 0
-0.036201868 -0.2115607 0.38189036 0
-0.036088616 -0.2125901 0.38022989 0
-0.03457826 -0.21232481 0.37470689 0
-0.033690352 -0.21215452 0.35369754 0
-0.036164142 -0.2082644 0.39084959 0
-0.033386853 -0.20711499 0.37691 0
-0.03375065 -0.20689206 0.34845686 0
-0.030024033 -0.20645805 0.33183396 0
-0.033172756 -0.20312762 0.34177962 0
-0.032550626 -0.19948588 0.38568437 0
-0.033835463 -0.20216464 0.34343559 0
-0.032387167 -0.19838481 0.38745737 0
-0.032856949 -0.20006566 0.33680764 0
-0.033429228 -0.199175 0.33838794 0
-0.031615682 -0.19153555 0.40229145 0
-0.033926204 -0.19530112 0.33842579 0
-0.031015385 -0.19083346 0.3966479 0
-0.030679539 -0.1912062 0.39286742 0
-0.033815976 -0.19139817 0.33015111 0
-0.029902782 -0.18747708 0.40233237 0
-0.034576673 -0.19040258 0.33663806 0
-0.034374479 -0.19023219 0.33291617 0
-0.021027658 -0.18744117 0.37573072 0
-0.035186354 -0.18810365 0.33471099 0
-0.036280625 -0.18598101 0.33502501 0
-0.028577555 -0.18220145 0.40781906 0
-0.026719786 -0.17948706 0.3984699 0
-0.038242731 -0.18115509 0.32996824 0
-0.025323085 -0.17304005 0.40602839 0
-0.04112998 -0.17429893 0.3288998 0
-0.04148845 -0.17341389 0.32695395 0
-0.043638222 -0.16917257 0.3269119 0
-0.0085997954 -0.15996757 0.39072353 0
-0.019485779 -0.15835108 0.41350564 0
-0.0090371594 -0.15808971 0.39320928 0
-0.048816573 -0.16024888 0.32120526 0
-0.018023103 -0.15115045 0.4231897 0
-0.017255418 -0.14905895 0.42317292 0
-0.016651072 -0.14816515 0.4214696 0
-0.045246817 -0.14726056 0.32267219 0
-0.015248731 -0.14289035 0.43031639 0
-0.044628408 -0.1463701 0.32089388 0
-0.0023878515 -0.14213921 0.40268359 0
-0.043657091 -0.14302467 0.32260838 0
-0.042218212 -0.13994151 0.33197898 0
-0.041142099 -0.13691989 0.32236278 0
0.012260959 -0.14310376 0.25038239 0
0.013986349 -0.1339477 0.25054443 0
-0.0074877664 -0.12133851 0.44011596 0
-0.004665561 -0.11862107 0.43396229 0
0.015313737 -0.1266963 0.2593073 0
-0.025122434 -0.11888935 0.33701134 0
-0.022174709 -0.11369639 0.34987271 0
-0.022399794 -0.11490931 0.34035918 0
-0.021806598 -0.11274136 0.34091517 0
0.021201238 -0.1163287 0.264036 0
-0.020119127 -0.11206978 0.33097726 0
0.011970252 -0.1064494 0.41338357 0
-0.020412825 -0.10695951 0.33886549 0
-0.020853795 -0.1064778 0.34799561 0
0.0043441504 -0.093201838 0.46419114 0
0.0047915056 -0.092046492 0.46238774 0
0.0058297738 -0.09327542 0.45598972 0
-0.017084885 -0.093908481 0.34266934 0
-0.014478169 -0.092607111 0.33195409 0
-0.013407387 -0.090516172 0.33192021 0
-0.015233818 -0.089014702 0.34077343 0
0.00076286495 -0.083930157 0.47687238 0
0.027686864 -0.083183594 0.42200464 0
-0.011823453 -0.084624164 0.33185497 0
-0.000234887 -0.080713622 0.47117931 0
-0.013299294 -0.084003545 0.34249103 0
-0.011846356 -0.081465989 0.33720985 0
-0.012184076 -0.079115458 0.35385063 0
-0.010921605 -0.075980201 0.35556698 0
-0.0094059259 -0.074226774 0.3594014 0
-0.010357067 -0.074203938 0.34742865 0
-0.0069153979 -0.074335285 0.32765639 0
-0.0028413981 -0.069423467 0.46940187 0
-0.0081722662 -0.071129009 0.3614139 0
-0.0076344237 -0.070136689 0.35939518 0
-0.0078885555 -0.070498377 0.33595064 0
-0.0085753351 -0.071352698 0.33775285 0
-0.0067989528 -0.068316586 0.3607046 0
-0.0074986964 -0.068121344 0.35109797 0
0.027630672 -0.067188911 0.4201718 0
-0.005520083 -0.067377433 0.36627486 0
-0.0061573982 -0.066221468 0.3571279 0
-0.0069141239 -0.067087948 0.34917402 0
-0.0051769242 -0.065234363 0.36271402 0
-0.0056300312 -0.056561861 0.47107035 0
0.028011464 -0.058124349 0.42123789 0
-0.0043539256 -0.058072492 0.35360536 0
0.030488051 -0.054465119 0.42235228 0
-0.0068704262 -0.049241744 0.46914005 0
-0.0072847456 -0.04497603 0.46911517 0
0.020834282 -0.041955393 0.41924968 0
-0.0013107583 -0.042595327 0.33497623 0
0.027049758 -0.044393942 0.29605037 0
0.023193516 -0.037857611 0.42192814 0
-0.0049882308 -0.039354764 0.34812751 0
0.022195131 -0.03685775 0.42096612 0
-0.0059090704 -0.037332561 0.35488498 0
-0.0089551359 -0.033030197 0.46815825 0
-0.0055907741 -0.035309721 0.34804866 0
0.020819485 -0.031649154 0.42366242 0
-0.0099904239 -0.026746081 0.46815747 0
-0.0071872771 -0.028480832 0.34684172 0
-0.0060271993 -0.028642029 0.33401075 0
0.014312558 -0.023488885 0.42314982 0
-0.0082691088 -0.019453967 0.3381466 0
-0.007902734 -0.020396207 0.33650067 0
-0.010796756 -0.015667314 0.46802813 0
-0.0090230256 -0.018522503 0.34317881 0
-0.0054686815 -0.018499233 0.32494783 0
-0.0054644048 -0.016604649 0.32491532 0
-0.008957535 -0.014552529 0.3398129 0
-0.059797265 -0.014238825 0.11879146 0
-0.074209623 -0.014866739 0.10355999 0
0.01371792 -0.013765336 0.20281817 0
-0.069690987 -0.013560773 0.11121806 0
-0.08316616 -0.013185294 0.094966918 0
0.013714693 -0.008137417 0.42767921 0
0.013025746 -0.0056442502 0.42984831 0
0.019078106 -0.0071715997 0.21393913 0
-0.010541707 -0.0038098097 0.36390465 0
-0.0079132169 -0.0044577941 0.332618 0
-0.032885022 -0.0062366747 0.15214404 0
-0.0081590861 -0.0015608438 0.33416408 0
-0.010321967 0.00039758207 0.35632959 0
-0.010091603 -0.00011863699 0.34675074 0
-0.011676166 0.0014031713 0.37681994 0
-0.010355163 0.0020055473 0.35022134 0
-0.010059394 0.0019960338 0.34678417 0
0.0112717 0.004222767 0.43081087 0
-0.011490457 0.0035517837 0.36942908 0
-0.011343896 0.0035320565 0.36575407 0
-0.01037718 0.0040788054 0.35015503 0
-0.0096939057 0.003948295 0.34299922 0
-0.0094759166 0.0039191702 0.33961618 0
-0.011422597 0.0024514238 0.2014723 0
-0.011147697 0.0055954503 0.36220765 0
-0.0098806359 0.0059710266 0.34307921 0
-0.0088282526 0.0068035312 0.33775091 0
0.040484235 0.0059136339 0.25426653 0
-0.0095833354 0.0088966535 0.3412089 0
0.03700453 0.0072209658 0.25224233 0
-0.10221683 0.0071282363 0.076081134 0
-0.007829532 0.0099894498 0.33289105 0
-0.012518428 0.01310256 0.46307361 0
-0.0098131299 0.012947273 0.34478486 0
-0.014588844 0.010456139 0.21341097 0
-0.014747713 0.014464117 0.37401167 0
-0.0084845722 0.014846622 0.33792263 0
-0.015600551 0.016480969 0.37404203 0
-0.012093764 0.016742239 0.356047 0
-0.010407094 0.016090831 0.34978205 0
-0.0083064735 0.015815688 0.3362152 0
-0.0071490332 0.01664656 0.33125481 0
0.036598034 0.015298417 0.26144335 0
-0.016154144 0.018548448 0.37401199 0
-0.015459001 0.01855805 0.36682761 0
-0.01072038 0.017113229 0.35158962 0
-0.10285386 0.016039936 0.078921147 0
-0.014145669 0.022953557 0.46359712 0
-0.10313426 0.020495143 0.074394226 0
-0.016774703 0.023409534 0.3651284 0
-0.10323919 0.021337766 0.075794496 0
-0.10302986 0.022231467 0.071525536 0
-0.014445651 0.026043355 0.46533147 0
-0.10349975 0.023930851 0.074336752 0
-0.013562158 0.028131627 0.46177059 0
0.022156015 0.025056124 0.25728634 0
-0.014506891 0.029214807 0.46354118 0
-0.019250736 0.029232128 0.37526357 0
-0.014642593 0.030237829 0.46530172 0
-0.014343746 0.030290013 0.46171132 0
-0.10038669 0.029949766 0.089719191 0
0.0029374883 0.033895142 0.43177855 0
-0.019161165 0.036114484 0.36321741 0
-0.10160185 0.035410188 0.099703431 0
-0.10397059 0.039096825 0.074481547 0
-0.032955788 0.046952683 0.37819445 0
-0.019477077 0.047586389 0.24191877 0
-0.037346277 0.050316073 0.37345237 0
-0.098748222 0.048562232 0.091321506 0
-0.098839402 0.049586076 0.0862232 0
-0.10140891 0.047968876 0.066247389 0
-0.04017663 0.052329019 0.36698961 0
0.024051301 0.051317371 0.27120563 0
0.011270769 0.05182422 0.26460436 0
-0.097199641 0.053976174 0.097324312 0
-0.099889763 0.054453857 0.072130397 0
-0.049967766 0.060525995 0.36440042 0
0.0083102286 0.060631696 0.26650017 0
-0.095320068 0.0597938 0.097419485 0
-0.017618142 0.061888754 0.45990288 0
-0.056899007 0.062507741 0.15229067 0
-0.093569785 0.062310722 0.092214592 0
-0.094484575 0.061950803 0.078752406 0
-0.094323486 0.063199349 0.072903454 0
-0.004461959 0.065277614 0.43214709 0
-0.047085047 0.066342227 0.38650018 0
-0.0044353269 0.06520059 0.25802666 0
-0.0055198334 0.065583304 0.25658041 0
-0.025989454 0.064852156 0.24182932 0
-0.0436364 0.065453187 0.20737867 0
-0.060351506 0.068167016 0.36306801 0
-0.0038684681 0.066950269 0.25941953 0
-0.0064757876 0.067541175 0.25654611 0
-0.01006199 0.068056025 0.25486049 0
-0.038304377 0.066756703 0.19122612 0
-0.088843256 0.069430709 0.086694606 0
-0.089448914 0.068441927 0.084864013 0
-0.016518887 0.070272453 0.2540476 0
-0.018404331 0.072019078 0.46032676 0
-0.0071824715 0.073442914 0.25794592 0
-0.018883333 0.073117495 0.25214091 0
-0.0080628805 0.073882662 0.25638339 0
-0.085868269 0.073632821 0.086678512 0
-0.030156638 0.078825019 0.24383858 0
-0.030028291 0.077660739 0.24237971 0
-0.024289165 0.079250067 0.24962594 0
-0.031175073 0.080322519 0.24078926 0
-0.045336746 0.079462297 0.20746453 0
-0.016955141 0.08119484 0.45507383 0
-0.0072918832 0.081488334 0.43054762 0
-0.029832564 0.082051039 0.24507193 0
