# .PCD v0.7 - Point Cloud Data file format
VERSION 0.7
FIELDS x y z intensity
SIZE 4 4 4 4
TYPE F F F F
COUNT 1 1 1 1
WIDTH 1364
HEIGHT 1
VIEWPOINT 0 0 0 1 0 0 0
POINTS 1364
DATA ascii
-2.0373006 6.4237213 -0.1649396 1
-0.32688254 6.9774542 -0.19355769 1
-0.65373623 6.8791842 -0.18262048 2
-4.8728528 4.0614967 -0.1220233 1
-1.3980056 6.6918035 -0.17653461 2
-1.3235897 6.6924348 -0.17298312 2
-1.5102222 6.649509 -0.17442019 2
-4.2408891 4.9536796 -0.14814408 1
-1.1673672 6.7493424 -0.17655523 1
-1.0059044 6.7912741 -0.17782898 2
-0.79447681 6.8455415 -0.18055101 1
-0.53718239 6.914721 -0.18625434 2
-4.6811032 4.4098697 -0.13623078 1
-2.9673259 6.0570683 -0.17631467 1
-0.49519575 6.9633856 -0.19458504 1
-4.5294452 4.5536704 -0.13294251 1
-0.37796187 6.9961004 -0.19821782 1
-1.3678465 6.6711807 -0.17114408 2
-4.5420794 4.5975571 -0.14059575 1
-4.5838428 4.4773784 -0.13073678 1
-1.0801717 6.8042607 -0.18328865 1
-0.82477611 6.8723297 -0.18670507 1
-1.1880116 6.7366638 -0.17506082 2
-1.6704113 6.6009102 -0.17428918 1
-4.59653 4.4575481 -0.12999304 1
-1.2648056 6.7470884 -0.1805243 3
-4.2141232 4.9942126 -0.15039261 1
-0.97951478 6.7884336 -0.17626102 1
-2.0977345 6.384275 -0.16198082 1
-1.5694767 6.589879 -0.16649802 1
-1.1521862 6.7929015 -0.1841646 1
0.80954778 2.1185608 0.74863482 62
2.1540635 2.077749 0.63587987 9
0.79474634 2.1218314 0.74861151 56
0.91592771 2.1081252 0.74574912 55
0.84008461 2.1175258 0.74753791 58
0.6389575 2.1477983 0.74874794 52
2.0835702 4.1692939 0.29379597 52
2.2157207 2.0754008 0.62834436 6
0.71192354 2.1321678 0.74962604 48
0.93043178 2.1061058 0.74539036 57
0.70485079 2.1334105 0.74961495 52
-0.20711851 7.0153489 -0.19871302 1
0.56481826 2.1629608 0.74748629 26
0.87806642 2.1141634 0.74645275 56
0.42721498 7.1259909 -0.21527345 1
0.66861206 2.1413867 0.7491762 54
2.2713056 2.0776398 0.6207993 4
2.1661396 2.0775914 0.63437241 13
2.1907125 2.0767794 0.63135803 11
0.93940669 2.1096709 0.74425948 56
0.25458759 7.1025686 -0.21096487 1
0.37619796 7.1225405 -0.21459039 1
2.1436994 2.6961703 0.54159111 18
2.5998859 2.0575149 0.57857442 13
0.65394408 2.1456146 0.74877149 52
0.03409579 7.0652027 -0.20520444 1
-0.11108444 7.033915 -0.20085235 1
0.86292386 2.118005 0.74642891 54
0.75726116 2.1276295 0.74893409 58
0.0096165491 7.0601864 -0.20447953 1
0.74165648 2.1246793 0.75005454 56
0.55706424 2.1618013 0.74785584 25
-0.23160523 7.0134134 -0.19875152 1
0.94786566 2.1113141 0.74350953 54
0.78733689 2.1234279 0.74859983 55
0.47712028 7.1330256 -0.21672173 1
0.64673609 2.1486623 0.74837852 50
0.90096748 2.1142325 0.74534392 57
0.58035868 2.1651952 0.74674749 29
0.59523171 2.1614716 0.74715251 26
2.1184399 2.3819547 0.59422129 1
0.95375282 2.105499 0.74428213 55
0.90959811 2.1139331 0.74497581 55
-0.15962851 7.0227942 -0.19940193 1
0.66024339 2.1367207 0.75030804 52
0.6739313 7.1303225 -0.21717592 1
2.2005796 2.0732026 0.63061029 9
2.3547451 2.0795388 0.60948169 103
2.0141659 4.1659975 0.29941133 59
2.5321543 2.0671594 0.58686346 4
0.80130178 2.116375 0.74938512 54
0.57518715 7.1225419 -0.21504112 1
0.10772375 7.0797424 -0.20737882 1
2.1455102 2.0826087 0.63624793 8
0.82610399 2.1228359 0.74713427 55
0.74869305 2.1213155 0.75044727 57
0.81606549 2.1130586 0.74940836 56
0.8839525 2.1065519 0.74760705 57
2.1812069 2.0799897 0.6321063 11
2.5609336 2.0651116 0.58309251 3
0.69199038 2.1435707 0.74806809 58
0.96109909 2.1033216 0.74429369 56
0.7782706 2.115314 0.75049382 58
0.6826005 2.1331837 0.7503432 52
0.60301834 2.1624932 0.74678314 25
0.85391432 2.1101263 0.74832302 58
2.2398319 2.0719957 0.62571102 7
2.4824142 2.0624938 0.59441781 20
2.3146276 2.0799856 0.61476135 3
0.57323128 2.1699462 0.74597287 26
-0.061969105 7.0368586 -0.20077534 1
-0.087229736 7.0471883 -0.20310493 1
0.98094171 2.1157868 0.74088997 51
0.5865373 2.1526225 0.7490471 29
2.029438 4.1619267 0.29905382 58
0.67701662 2.1460199 0.74804449 56
2.4002438 2.067785 0.60497403 4
0.98948622 2.117265 0.74014014 51
0.92095959 2.1006134 0.74690205 57
0.61735475 2.1606593 0.74680567 54
2.124016 2.4413688 0.58430672 11
0.45202512 7.1217008 -0.2144713 2
-0.2550956 6.9996543 -0.19649835 1
2.3747282 2.0709734 0.60798681 5
0.77008909 2.1130078 0.75124425 60
2.4130208 2.0660954 0.60346764 2
0.55068398 7.1351109 -0.21736963 1
0.30417499 7.1029582 -0.21088703 1
2.2812352 2.0737264 0.62005174 4
0.15686296 7.0929327 -0.20959158 1
0.9684369 2.1011186 0.74430525 51
2.1195829 2.4713111 0.58010131 3
2.2242785 2.0702686 0.6279763 7
2.0629761 4.1608696 0.2968168 52
2.0845418 2.1442657 0.63462448 3
0.63000381 2.141124 0.75026047 52
0.89006448 2.1029148 0.7479983 55
1.9966997 4.1645422 0.30091044 37
2.1250281 2.0743754 0.64003217 7
2.117795 2.4507771 0.58353353 4
0.76585698 2.1319101 0.74780267 56
0.64834416 7.1157708 -0.2141629 1
2.1151333 2.3104792 0.6056661 21
2.0888541 2.1812117 0.62852454 1
0.84561753 2.108114 0.74907327 60
-0.038433257 7.057807 -0.20455499 1
-0.13615713 7.0401497 -0.20241828 1
0.59939116 7.1374021 -0.2180564 1
0.6103096 2.1655314 0.74603122 47
2.113941 2.0761435 0.64115959 6
2.4794381 2.0740747 0.59326798 27
2.4508801 2.0752594 0.59703934 4
0.54873437 2.1547542 0.74936932 25
0.62350327 7.1168208 -0.21420188 1
0.4024162 7.1341205 -0.21683915 1
2.5786033 2.0662427 0.58044887 4
0.13210478 7.0922675 -0.20963044 1
2.5350504 2.055454 0.58801311 4
0.52648801 7.1161609 -0.21359093 1
0.72146517 2.1424258 0.74735111 52
0.20532256 7.0841675 -0.20760722 2
2.1291313 2.61588 0.55607146 1
2.2497227 2.0682104 0.6249634 6
0.83539385 2.1307461 0.74524057 57
2.6216409 2.0627401 0.57479227 23
2.0908396 2.0931673 0.64150459 25
2.0963268 2.0834076 0.64227664 8
0.69541919 2.123081 0.75189006 52
2.3347425 2.0879266 0.61097664 8
2.5063863 2.057271 0.59178424 4
2.100548 2.1793396 0.62739813 3
0.27944192 7.094955 -0.20939918 1
0.18145399 7.1013627 -0.21107979 1
0.23002341 7.0865402 -0.20795007 1
0.32895601 7.1265821 -0.21542783 1
2.1244464 2.5713773 0.56369734 7
2.1241813 2.4070735 0.58965033 2
2.1170974 2.5045075 0.57513577 1
0.73040402 2.1447818 0.74660188 56
1.9792644 4.1630158 0.3024095 25
2.1074021 2.3509474 0.60031044 2
2.4408276 2.0798776 0.59778672 4
2.1023142 2.0757487 0.64266777 6
0.62173957 2.1363082 0.75139242 50
0.87369627 2.1294658 0.74377424 57
-0.27849847 6.9858179 -0.19424517 2
2.5959501 2.0676672 0.5778048 4
2.3805614 2.0624435 0.60837775 9
-0.18529522 7.0366879 -0.20249541 1
2.0432093 4.1541691 0.29945722 48
2.093431 2.2327893 0.62013519 2
0.73205739 2.1125159 0.75271106 58
2.4693704 2.0788124 0.59401536 7
0.50229764 7.1442633 -0.21897228 1
2.1487403 2.6643181 0.54617912 1
2.1243942 2.5905318 0.56064391 2
2.1037133 2.3291106 0.60412133 2
2.1266921 2.4272094 0.58621931 13
2.1382651 2.5520871 0.56524593 3
0.082596235 7.0906763 -0.20970817 1
2.1364558 2.7057388 0.54081631 5
2.312753 2.0925927 0.61323166 4
2.1417577 2.5760467 0.5610531 15
2.0779233 2.1217654 0.63881236 3
2.0987003 2.3057697 0.60831171 6
2.1106527 2.224138 0.61939919 1
2.0877821 2.2097182 0.62432456 2
0.35137385 7.1383462 -0.21768267 1
2.1195731 2.2995951 0.6068182 12
-0.012445782 7.0316167 -0.19917102 1
2.1120903 2.4791243 0.5797078 1
2.4853361 2.0509174 0.59556752 6
2.1564012 2.6947153 0.54046625 6
0.059673693 7.0426698 -0.20058437 1
2.0765512 2.1050785 0.64148188 4
2.0772345 2.091747 0.64339131 4
2.1215391 2.2856159 0.60872966 2
5.8266044 -0.91609633 0.096375868 61
5.8822985 -0.22283594 0.099502012 61
5.8777003 -0.28081691 0.099877641 59
5.8912325 -0.12611704 0.098369285 57
5.9318037 0.29918593 0.089265391 59
5.9878759 0.93990415 0.064916775 66
5.9224353 0.20096414 0.091924116 54
5.833035 -0.83843946 0.097529218 59
5.9512944 0.49630457 0.082804486 63
5.9740109 0.79754704 0.071767136 67
5.890759 -0.14551371 0.098368928 57
5.8983254 -0.050516058 0.097234055 56
5.8467922 -0.66510892 0.099455401 63
5.9553657 0.55802298 0.080901548 64
5.8420153 -0.70357186 0.099448726 63
3.7097251 1.974861 0.41507813 1
5.9287443 0.24030605 0.090406582 54
5.8647962 -0.39545411 0.10100465 61
5.8175044 -1.0132304 0.094837114 59
5.8985443 -0.010702324 0.097233579 56
5.9353404 0.34056678 0.088125274 56
5.8902168 -0.16490331 0.09836857 59
5.8496571 -0.60595715 0.1002218 63
5.8658175 -0.43435934 0.10024373 61
3.9271078 1.9531872 0.38069269 11
4.0567722 1.939445 0.35990766 9
5.8553023 -0.51118225 0.10099201 63
5.8199043 -1.0324976 0.093696401 61
5.8810806 -0.20339903 0.099881336 59
5.92693 0.2793566 0.090402886 56
5.8587365 -0.47262862 0.10099666 61
5.8181958 -1.052007 0.093312547 57
5.8357859 -0.82020026 0.097533271 59
5.8424888 -0.68409997 0.099830553 64
5.8171434 -0.99338675 0.095599458 57
5.8533616 -0.62586951 0.099083349 57
5.9645057 0.65634388 0.077097699 64
5.9829741 0.85822755 0.068345234 69
5.8965044 -0.031085245 0.097612306 57
4.230021 1.9278964 0.33117697 1
5.852982 -0.64631933 0.098701522 61
5.9572797 0.53839844 0.080904886 64
5.9152379 0.10518362 0.093822762 50
5.8421268 -0.76228333 0.097923681 61
5.9101338 0.047664221 0.094960734 54
5.8252606 -0.87553698 0.097899482 61
5.8534846 -0.5304485 0.10098962 63
5.9000912 -0.068991326 0.096855566 57
5.9690127 0.71675009 0.074813768 63
5.8685751 -0.33848894 0.10100929 61
5.8834491 -0.24228649 0.099122688 59
3.2401164 2.0107257 0.48761067 5
4.3533583 1.9212555 0.31038174 3
5.8576593 -0.56784225 0.099470422 61
4.0032291 1.9442408 0.3686007 2
5.8825698 -0.26165268 0.099121734 59
5.8697233 -0.31916854 0.10101072 61
5.9239473 0.25965068 0.091162011 56
5.9597859 0.69563389 0.077089474 63
5.9625812 0.73590535 0.075566575 67
5.9138589 0.16264151 0.093819305 52
4.3168907 1.920079 0.31681201 10
5.8985476 0.0087180352 0.097233102 56
5.9780035 0.87763542 0.068718717 66
5.81671 -0.97355795 0.096361563 59
5.9573503 0.51662439 0.081287071 61
3.6590612 1.9757278 0.42339423 14
5.8447542 -0.7430526 0.097927377 61
5.8278141 -0.95576096 0.094852135 59
5.8817568 -0.18403579 0.099881932 59
5.8087082 -1.070013 0.094442889 54
5.8877125 -0.10664611 0.099126622 57
5.9912829 0.91917658 0.064922497 66
5.8478322 -0.58628857 0.10098188 61
2.8757708 2.0334256 0.54122788 12
5.8681817 -0.45398647 0.099484608 61
5.9453187 0.39821529 0.085468337 59
5.8473144 -0.72381294 0.097931072 61
3.0059767 2.0325251 0.52158827 25
5.8358955 -0.85853678 0.096389338 61
5.8739805 -0.37667933 0.099492118 61
3.3161237 2.0038283 0.47628173 3
5.922245 0.14336558 0.092306539 52
5.9102664 0.028200533 0.09496133 54
5.9667621 0.63668948 0.077101633 64
3.0240259 2.0314686 0.51894528 27
5.9905772 0.89881086 0.065685198 64
5.9207268 0.12479041 0.092686102 54
5.8594651 -0.41446313 0.10175996 63
5.8531404 -0.49155867 0.10175161 61
5.828897 -0.79958284 0.09943001 63
3.645751 1.982708 0.42489967 3
5.8998165 -0.088416606 0.096855566 57
3.4166007 1.9941351 0.46117494 8
5.9020791 0.067027465 0.096474215 54
5.9838462 0.83920521 0.068728611 66
5.9388833 0.45678616 0.08583872 61
5.8688426 -0.2997407 0.10139053 59
3.1586316 2.0139928 0.50007612 6
5.9496779 0.57527685 0.081655428 59
5.9132886 0.18114071 0.093818113 52
5.9301982 0.35986137 0.088879988 56
5.9334736 0.22093369 0.089651272 54
5.8633246 -0.55087888 0.098715827 61
3.1970792 2.0106535 0.49441227 2
3.2137465 2.0073843 0.49214879 4
6.0172348 1.5034682 0.03632991 69
5.9018106 0.086462356 0.096473381 54
5.9671645 0.59694374 0.077866241 64
2.8920803 2.0318673 0.53896391 4
5.9599781 0.75554198 0.075562045 65
3.623677 1.9851254 0.42829946 4
5.8791189 -0.3585628 0.098736688 61
3.5326347 1.9908688 0.44265786 15
5.9521909 0.43813565 0.083570406 61
3.8642557 1.9655787 0.39013419 1
5.3878369 1.7567265 0.13799159 9
2.989511 2.0346761 0.52385211 5
3.269784 2.0161288 0.48231456 13
5.9517279 0.41837969 0.083951518 59
5.9847984 0.81919783 0.069112107 69
5.9290395 0.37743998 0.088877723 56
5.8277669 -0.77984637 0.10019104 61
2.9244063 2.0289352 0.53443521 3
5.818296 -0.89406449 0.098652169 61
3.3848979 2.003216 0.46532276 6
3.7437766 1.978833 0.40902564 1
5.9709034 0.61723828 0.076726839 63
3.1343877 2.0107534 0.50423592 22
3.776953 1.964491 0.40488026 6
5.8349891 -0.93723869 0.094099686 61
3.2780755 2.0074892 0.48194614 20
3.4079762 2.0038104 0.46154276 26
5.9504814 0.67458808 0.07936506 62
4.0722446 1.9309437 0.35802391 2
3.5378931 1.9786607 0.44304797 10
5.9464107 0.31961626 0.086234972 59
5.9573064 0.77517456 0.075557515 65
5.7760353 2.3051653 0.02982871 20
3.6743968 1.9690939 0.42151031 6
3.1736591 2.0097926 0.49819168 3
3.8214092 1.9577074 0.39808103 2
3.1353087 2.0262685 0.50232893 11
3.5578313 1.9762352 0.44002637 2
5.9313846 0.47584814 0.086971328 59
4.0447645 1.9496866 0.36103341 3
4.2790437 1.9350383 0.32209489 1
4.0975165 1.9290428 0.35386595 1
3.918546 1.9647719 0.38106069 3
3.579812 1.9741518 0.43662646 2
4.1585832 1.9259062 0.34365818 4
4.1863689 1.9230675 0.33912244 6
3.794045 1.9582626 0.40261748 11
3.896883 1.9674821 0.38446113 3
3.5206738 1.9988923 0.44378373 4
4.1637554 1.9461356 0.34099451 2
2.9003468 2.0245886 0.53859538 2
3.3165641 1.9890501 0.47780916 3
2.9302747 2.0182216 0.53482628 2
2.9792836 2.0415332 0.52459913 4
3.9600458 1.9376056 0.37654701 1
3.934243 1.9400045 0.38070413 3
3.05112 2.0083277 0.5174619 3
5.4552259 1.7601383 0.12550394 1
3.0299149 2.0072489 0.52086318 3
3.4202378 1.9812412 0.46194413 2
3.1285732 2.0355477 0.5023182 4
3.1103675 2.0371592 0.50496089 4
3.3778863 2.013854 0.4653115 6
3.7870984 1.986285 0.40107957 3
4.3225269 1.9399798 0.31414911 3
3.4370735 1.9767846 0.45968094 2
4.6404557 -2.0262704 0.25176284 30
1.3526112 -1.5291674 0.81443775 26
5.8107285 -1.1101506 0.092538759 59
4.6634097 -2.0002787 0.24989025 43
5.6700463 -3.0530357 -0.016403275 67
5.5317049 -3.8820198 -0.082623675 4
1.4710007 -1.4407749 0.81500345 30
5.8087435 -1.129657 0.092154548 61
1.3652496 -1.513545 0.81560212 33
5.6543164 -3.2943442 -0.037793711 65
4.7740722 -1.9212058 0.23670577 6
1.4878953 -1.4423963 0.81274033 26
4.6930208 -1.9780684 0.24650173 37
5.7982302 -1.2865124 0.087561652 63
5.7988615 -1.2665451 0.088325545 61
4.9942923 -4.3677974 -0.063995078 7
5.3417411 -4.0776358 -0.077193812 3
5.666163 -3.0755637 -0.017935472 65
5.663197 -3.1236327 -0.022136884 61
5.7975273 -1.3064854 0.086797759 61
5.6527801 -3.3191309 -0.04008539 67
5.6812043 -2.9367747 -0.0072295237 74
5.649384 -3.3687892 -0.044669107 69
5.054244 -4.3320432 -0.067717865 6
5.1645722 -4.2504196 -0.072888926 2
5.4058876 -4.013422 -0.079002336 3
4.8200474 -4.4773192 -0.05472596 7
5.6340675 -3.4901824 -0.0549943 65
5.6672783 -3.1010652 -0.020604448 61
5.682569 -2.8891134 -0.0030304957 70
5.6238208 -3.590292 -0.064167216 65
5.8020253 -1.2080951 0.090237424 59
5.293448 -4.1239533 -0.075742081 4
5.6291652 -3.5401855 -0.05958052 67
1.4395107 -1.4428818 0.81838858 28
5.4660988 -3.9458218 -0.080054 3
5.63167 -3.5151739 -0.05728741 60
5.6631961 -3.1738133 -0.027097063 67
5.793993 -1.3460035 0.085648224 59
5.5838099 -3.8079305 -0.082161739 22
1.4185922 -1.4562294 0.81873763 30
4.8766618 -4.4367576 -0.056927636 7
5.8049464 -1.2488539 0.087953135 59
5.6777191 -2.983597 -0.011050181 74
5.0123868 -4.3541808 -0.064730123 6
5.6478128 -3.3418536 -0.041619256 69
1.3787957 -1.4994377 0.81638634 34
1.3494349 -1.53599 0.81366968 35
5.8023715 -1.1881679 0.09100084 57
1.400714 -1.4645252 0.81947303 28
4.7861114 -4.5027795 -0.053633884 6
5.6455555 -3.4185584 -0.049253538 69
5.329711 -4.0954599 -0.077593878 3
5.61341 -3.6919205 -0.07372196 53
5.8073564 -1.2293223 0.088338062 61
1.3397549 -1.5329616 0.8151809 26
1.3941585 -1.4765387 0.81831807 25
5.653789 -3.2199945 -0.030163722 65
1.4647523 -1.4431914 0.81537533 29
5.25703 -4.1521401 -0.073890641 3
5.6862497 -2.9152756 -0.0060771275 70
5.6604171 -3.2469075 -0.033969 65
5.8124547 -1.1503708 0.090634272 61
5.1764216 -4.2309499 -0.072107509 3
5.3605251 -4.0638356 -0.078309372 3
4.8105464 -1.9009162 0.23180161 34
4.9399052 -4.4052377 -0.061408237 8
4.8609934 -4.4555397 -0.057333425 6
5.6330676 -3.4630692 -0.051943615 65
5.6246524 -3.6723518 -0.073323086 58
4.7547407 -1.9311905 0.23934703 21
5.6590261 -3.1462045 -0.023669438 56
1.3343614 -1.5481925 0.81326461 34
1.4567907 -1.444425 0.81612611 34
5.2730007 -4.1361933 -0.074247435 3
5.6352363 -3.4381449 -0.049650982 67
5.6232896 -3.5630336 -0.061115697 65
5.668983 -3.0031936 -0.011445122 68
5.2324023 -4.1902289 -0.075073317 3
5.8007236 -1.1678454 0.092142746 61
4.6439414 -2.0095708 0.25253114 24
4.7758689 -4.5238943 -0.055175975 6
5.0780439 -4.3234797 -0.069970325 7
5.6290874 -3.6209247 -0.068356231 69
4.7479739 -1.9466054 0.23933671 8
1.3643632 -1.5236413 0.81407446 33
5.6277351 -3.647182 -0.071029142 67
1.4755211 -1.4371946 0.81501049 27
5.4950848 -3.9110897 -0.080390766 4
1.3794076 -1.5109667 0.81447947 35
5.0960207 -4.3095303 -0.070705608 4
4.9745021 -1.6358435 0.22098671 29
4.7966633 -1.9134355 0.23330657 7
5.6069145 -3.7148428 -0.07525821 44
5.0304384 -4.3404951 -0.065465406 6
1.3835655 -1.4840904 0.81830162 32
4.8342528 -4.4602551 -0.054322317 6
4.7346177 -4.5449119 -0.052568987 7
4.9669137 -1.65137 0.22135673 28
5.2192326 -4.2085814 -0.07547529 3
5.662436 -3.2737017 -0.037018254 67
5.4306831 -3.9755092 -0.078201011 3
1.4517431 -1.4483362 0.81611824 28
5.6789641 -3.0334234 -0.016008096 68
5.5531106 -3.8697042 -0.084498361 7
5.3964539 -4.034771 -0.080161527 3
4.9820952 -1.6021309 0.22176115 17
4.8316355 -1.8913723 0.22878163 22
5.4907684 -3.9362252 -0.082686856 4
5.6515288 -3.19332 -0.027114945 65
5.6787729 -2.8630106 1.5897751e-05 72
5.6692033 -2.9544668 -0.0068664122 68
1.49169 -1.4368298 0.81312776 28
5.1526461 -4.269855 -0.073670343 4
1.3795079 -1.4893531 0.81791371 28
4.8509011 -1.8809451 0.22614031 12
5.1008105 -4.2836971 -0.068027332 5
5.6541448 -3.3978868 -0.048477247 69
1.4273306 -1.4373593 0.8206591 25
4.9857459 -1.6215768 0.21985923 27
1.399001 -1.4948044 0.81489152 33
4.6998992 -1.9628409 0.24651222 32
5.8082004 -1.3292543 0.083762094 61
5.38234 -4.052413 -0.080183342 3
5.4136858 -3.9908481 -0.077464178 3
4.9365268 -1.6777521 0.22512577 41
5.2529831 -4.1781955 -0.076567724 2
5.4616103 -3.9709215 -0.082350329 3
1.3502778 -1.5141912 0.81710511 29
5.6179371 -3.7502713 -0.080964521 43
4.9636865 -4.4002199 -0.064042524 8
1.3301104 -1.5298839 0.81669211 27
5.3017559 -4.1016183 -0.07420297 3
4.7641654 -4.5435853 -0.056338742 7
4.9405079 -1.6610128 0.22551326 23
5.781641 -1.3631443 0.087155625 59
4.9075251 -4.404942 -0.056879833 8
5.1852288 -4.2088761 -0.070567682 3
4.7933092 -4.4818153 -0.051714972 7
4.8864813 -4.4154096 -0.055386141 7
5.5729136 -3.8561203 -0.08599408 9
4.9861579 -4.3907738 -0.06591554 7
4.6917934 -1.9949639 0.24535535 29
1.4216796 -1.4710566 0.81607151 33
1.3808013 -1.5243169 0.8121922 41
5.5024276 -3.8883328 -0.078853205 2
1.4168864 -1.4329582 0.82255071 24
5.1406441 -4.2892599 -0.074452117 6
5.5863414 -3.8378141 -0.085973337 11
4.6138411 -2.0320263 0.25591895 6
1.4108217 -1.4887326 0.81452835 33
5.6175928 -3.7778265 -0.084017351 39
5.6098204 -3.7987618 -0.08517392 35
1.3941962 -1.4449646 0.82327855 20
1.40952 -1.4335904 0.82330239 24
4.9217234 -1.689612 0.22701089 44
4.7016811 -1.944433 0.24765955 29
4.6014085 -2.0444081 0.25704458 8
0.48237026 -1.1288985 0.94891906 46
0.41017479 -1.1183867 0.95224005 45
0.24958396 -1.1218268 0.95122468 16
0.38228375 -1.1120931 0.9537226 45
0.61254346 -1.1443946 0.94149143 48
0.24155858 -1.1211988 0.95121205 16
-0.71928579 -6.7562656 -0.16069086 8
-1.7161398 -6.4428329 -0.14737947 1
0.39403388 -1.1134801 0.95335943 48
0.81240022 -1.1679641 0.9253962 12
0.26556906 -1.1209391 0.95163137 15
-0.64932352 -6.7727637 -0.16172536 10
0.25754964 -1.1204255 0.95161879 15
0.5233041 -1.1326911 0.94707531 43
0.47049999 -1.1284243 0.94928205 39
0.28889981 -1.1162119 0.95281279 10
0.37832117 -1.1102957 0.95409793 46
0.64833844 -1.1513572 0.9384948 52
0.61700875 -1.1453191 0.94111687 50
0.31624353 -1.1130384 0.95361888 21
0.32789966 -1.1131564 0.95363718 39
-0.81384391 -6.7428203 -0.16122122 7
0.65783483 -1.152797 0.93774652 56
0.71556854 -1.1556622 0.93402112 52
0.66131806 -1.1497693 0.9381336 57
0.41808203 -1.1217532 0.95148927 41
0.4261069 -1.1211181 0.95150185 41
0.45804548 -1.1259179 0.95002562 33
0.39792058 -1.1132615 0.95336556 49
0.33955699 -1.1131523 0.95365548 39
0.30053395 -1.1185786 0.95244944 7
0.56071812 -1.1357911 0.94522607 46
-0.78912264 -6.7469864 -0.16118224 7
0.7056787 -1.1526979 0.93515033 50
-1.8245041 -6.3948922 -0.145261 1
-1.8468132 -6.3873153 -0.14529617 1
0.60854679 -1.1453624 0.94148517 49
0.32401484 -1.1131306 0.9536311 36
0.80551922 -1.2235307 0.91584605 13
0.62645525 -1.1490178 0.93998688 51
0.34727755 -1.1091555 0.95443076 33
-0.6723817 -6.7654033 -0.16099854 9
-1.5591782 -6.4988937 -0.14865835 1
0.30443868 -1.1186862 0.95245558 10
0.36694586 -1.1126623 0.95369852 43
-0.83770949 -6.7407031 -0.16164024 7
0.57676893 -1.1344677 0.94486964 41
0.26158616 -1.118724 0.9520067 20
0.3862589 -1.1138766 0.95334727 47
0.65340579 -1.1540344 0.93773961 56
0.27331945 -1.1154824 0.95278829 16
-1.8034108 -6.4061155 -0.1459908 1
0.43857357 -1.1279044 0.9499951 33
0.80979854 -1.1732674 0.92462897 12
0.35121363 -1.1130263 0.95367378 39
0.53208226 -1.1351706 0.94632596 45
0.58681238 -1.1423241 0.94297743 46
0.52712166 -1.1300522 0.94746286 46
0.63827121 -1.145939 0.94000536 55
-1.8887639 -6.3645134 -0.1438361 1
0.69183499 -1.1509099 0.93627346 51
0.80907387 -1.2200462 0.91623318 13
-0.6954003 -6.7579632 -0.1602716 9
0.48683831 -1.1322623 0.94816291 47
0.44644475 -1.1291153 0.94962591 37
0.4300195 -1.1207875 0.95150799 41
0.56844443 -1.1342169 0.94523817 47
0.72064561 -1.1581124 0.93326586 49
0.28092596 -1.1197968 0.9520371 13
0.46659377 -1.1308693 0.94889432 38
0.56585974 -1.1407616 0.94408935 45
0.8147673 -1.1627415 0.92616302 12
-0.74224514 -6.7486663 -0.15996368 8
0.35902885 -1.1148371 0.95330447 42
-1.7610688 -6.4283552 -0.1474504 1
-1.8690958 -6.3796601 -0.14533134 1
-0.53246027 -6.8005981 -0.16383107 13
0.70284855 -1.1577308 0.93438274 54
0.68032771 -1.1564809 0.93587387 54
-0.88321537 -6.7306323 -0.16133042 5
0.45058882 -1.1306666 0.94925082 36
-1.6033851 -6.4776497 -0.14720173 1
0.47767627 -1.12357 0.95005643 43
0.50990701 -1.1249205 0.94896221 40
0.25391659 -1.1162374 0.95237619 13
-1.5807621 -6.4843764 -0.14716609 1
0.57402444 -1.1410735 0.94372058 42
0.27740964 -1.1117637 0.95355785 16
0.8117671 -1.2021027 0.91929001 13
0.81116837 -1.2128986 0.91738117 13
0.35494205 -1.1051054 0.95520598 41
0.41359898 -1.1142093 0.95300853 41
-0.85902888 -6.7309775 -0.16052909 5
0.44288939 -1.1314384 0.94923872 39
0.40588519 -1.1127707 0.95337802 49
0.49106112 -1.1336641 0.94778794 45
0.55166632 -1.1315674 0.94635659 41
0.58072722 -1.1336112 0.94487584 41
-0.62512642 -6.7722716 -0.16092415 10
0.51807463 -1.125598 0.94859344 43
0.69880474 -1.1590135 0.93437642 54
0.33179206 -1.1072788 0.95478803 37
0.37422583 -1.1045601 0.95523626 43
0.64175767 -1.1429722 0.94039243 54
0.8105967 -1.0769526 0.94180107 1
0.36297315 -1.116703 0.95292908 41
0.26926017 -1.1250889 0.95087403 19
0.45348454 -1.12049 0.95116323 38
-0.57846874 -6.7925892 -0.16352172 11
0.32003829 -1.1209439 0.95209855 33
0.46286929 -1.1332779 0.94850689 36
0.70908988 -1.1495252 0.93553722 51
0.53426695 -1.1268094 0.94785565 41
-1.5143622 -6.5097489 -0.14820619 2
0.50747013 -1.1352329 0.94705051 45
0.81150579 -1.1215173 0.93378943 2
0.38974455 -1.1058422 0.95487905 48
0.3122128 -1.1208237 0.95208627 13
0.49925637 -1.1344782 0.94741923 46
0.8078984 -1.1803881 0.92348129 12
-0.60029846 -6.7757459 -0.16088517 10
0.59742326 -1.1338711 0.94413877 43
0.63666767 -1.1544864 0.93847656 52
0.5035072 -1.1358337 0.94704431 43
0.68150562 -1.1458707 0.9377836 52
-1.6959915 -6.4574442 -0.148874 1
0.59209621 -1.1471777 0.94184101 45
0.54101455 -1.1415539 0.94481361 45
0.37049627 -1.1027275 0.95561194 47
0.6724478 -1.1588159 0.93586153 57
0.67684662 -1.1595677 0.93548679 56
-0.76398784 -6.7411809 -0.15923472 8
0.34349811 -1.1190134 0.95251691 37
0.40253329 -1.1247865 0.9510833 47
0.66349268 -1.1430171 0.9392817 56
0.54990953 -1.1438966 0.94406438 41
0.6855036 -1.1446483 0.93778986 51
0.59302413 -1.1328722 0.9445135 40
0.72657412 -1.1623328 0.9321304 46
0.63263613 -1.1555382 0.93847024 52
-1.5386502 -6.5130138 -0.15015228 1
0.81124365 -1.142941 0.92997324 6
0.47321695 -1.1181982 0.95119417 40
0.605452 -1.1501371 0.94071716 47
0.28458202 -1.125857 0.95089811 12
0.55485564 -1.1269459 0.94712478 42
0.29314965 -1.1065505 0.95472735 7
0.49279392 -1.1175584 0.95084327 42
0.51289707 -1.1184821 0.95011163 43
0.54627454 -1.1465757 0.94367713 42
0.30817077 -1.1266311 0.95093518 11
0.43322691 -1.1126215 0.95303935 36
0.33563808 -1.0994245 0.95632041 32
-1.6305346 -6.4858747 -0.15029712 1
0.80821782 -1.0522057 0.94637626 1
-1.7859533 -6.4284563 -0.14901586 1
0.80944484 -1.0451815 0.94752288 2
0.61812997 -1.1328977 0.94340807 50
-1.7422259 -6.4468451 -0.14971001 1
0.80911678 -1.1267966 0.93302256 2
-1.6676195 -6.4457464 -0.14501365 1
-1.6451075 -6.4526973 -0.14497812 1
0.42343792 -1.1370922 0.94844508 45
0.29720387 -1.1007974 0.95587844 7
0.24409808 -1.1391275 0.94778186 15
-0.55823064 -6.8131018 -0.16692419 14
0.82240957 -1.1360708 0.93037224 1
0.82323998 -1.1271545 0.93189985 1
0.80133414 -1.0466877 0.94789177 1
0.82420874 -1.1181608 0.93342769 1
-5.5377207 -2.7173281 -0.096978024 0
-5.7923369 -2.1878979 -0.10425778 0
-4.0971632 -4.816596 -0.10917409 1
-5.1945996 -3.4285197 -0.10329361 0
-6.0476413 -1.0887359 -0.098575428 0
-5.1825991 -3.4478002 -0.10327442 0
-3.5022762 -5.3559499 -0.11662455 1
-4.0057063 -4.9201374 -0.11208136 1
-4.0193505 -4.8975654 -0.1105767 1
-4.161283 -4.7513919 -0.10851295 0
-5.8641891 -1.785808 -0.093693689 1
-5.5507374 -2.6984491 -0.097762063 0
-5.7999368 -2.1664963 -0.10427018 0
-5.7846627 -2.2092726 -0.10424538 0
-5.2172165 -3.3917713 -0.10332997 0
-5.1705298 -3.4670398 -0.10325511 0
-5.2053428 -3.4111314 -0.1033109 0
-3.4602654 -5.3761926 -0.11503167 2
-3.9962633 -4.9441204 -0.11435564 1
-4.1253257 -4.7797952 -0.10769255 0
-4.0560627 -4.8699632 -0.11139829 1
-6.0514026 -1.0664496 -0.098581865 0
-2.2143028 -5.4074006 0.0040827226 128
-4.0651207 -4.8458853 -0.10912319 1
-5.6433172 -2.5672753 -0.10401602 0
-3.4869697 -5.3741112 -0.11774488 2
-5.6522417 -2.546392 -0.10403045 0
-2.1986172 -5.4256024 0.0021995734 130
-5.5601206 -2.6778877 -0.097777203 0
-5.7769141 -2.2306209 -0.10423274 0
-5.2290225 -3.3723695 -0.10334881 0
-3.5674281 -5.3281431 -0.11978026 1
-5.1583943 -3.4862366 -0.10323556 0
-2.6855466 -5.0586729 0.020126624 18
-3.516356 -5.3361549 -0.11512049 1
-5.8074617 -2.1450679 -0.10428245 0
-5.6343188 -2.5881279 -0.10400148 0
-4.3742213 -4.5460839 -0.1096148 1
-2.7122922 -5.0632391 0.016650124 34
-5.8428454 -1.803036 -0.090606764 1
-5.5694323 -2.6572933 -0.097792223 0
-5.6610932 -2.5254772 -0.10404475 0
-5.1461921 -3.5053904 -0.10321601 0
-5.8149114 -2.1236143 -0.10429461 0
-2.6571157 -5.0914841 0.017500563 13
-5.6252489 -2.6089492 -0.10398681 0
-3.548806 -5.3417325 -0.11975069 1
-6.0667892 -1.1611195 -0.10470994 0
-5.7694836 -2.2508759 -0.1042207 0
-5.8222876 -2.102133 -0.10430665 0
-4.025948 -4.8706346 -0.10753472 0
-5.1339226 -3.5245023 -0.10319634 0
-6.0130506 -1.425964 -0.10462005 0
-4.1339188 -4.7556124 -0.10541697 0
-5.5873828 -2.6170421 -0.097821191 0
-4.0935597 -4.8465309 -0.11298402 1
-5.8295875 -2.0806279 -0.10431857 0
-2.6424816 -5.1114173 0.015615864 28
-5.1203489 -3.5454752 -0.10317464 0
-5.6068902 -2.6504951 -0.10395713 0
-5.7615891 -2.2721717 -0.10420783 0
-6.0710015 -1.1376477 -0.10471709 0
-6.0080347 -1.4481143 -0.10461183 0
-4.1272869 -4.815496 -0.11303754 1
-2.67887 -5.0877662 0.015939994 30
-6.0160556 -1.0150219 -0.090131834 0
-6.0749335 -1.1152803 -0.10472365 0
-6.0029411 -1.4702469 -0.10460337 0
-3.4279637 -5.3701143 -0.11040159 2
-6.0163474 -1.0378183 -0.090895012 0
-4.3301811 -4.5351253 -0.10191341 0
0.81702161 2.1143835 0.82718611 59
0.86297566 2.1155684 0.82538098 52
0.91117406 2.1172569 0.82326663 53
0.71246529 2.1315877 0.82764727 57
0.73514104 2.1254215 0.8279959 58
0.65421343 2.1431231 0.82724267 51
0.58094847 2.1647415 0.82524997 17
0.93365657 2.1151016 0.82267624 55
0.94896066 2.1127572 0.8223874 52
0.94103605 2.1129937 0.82268786 53
0.779603 2.1185555 0.82775295 61
0.98654431 2.1055822 0.82182086 49
0.60286778 2.1561513 0.82622319 21
0.683465 2.1345379 0.82791454 55
0.91856128 2.1152275 0.82327825 53
0.87181687 2.119451 0.82445627 55
0.76325059 2.115886 0.82866597 56
0.95764112 2.116389 0.82146239 55
0.97297406 2.1138711 0.82117361 52
0.66947389 2.1427834 0.82695383 52
0.6241501 2.1493995 0.82688248 50
0.88056904 2.1212895 0.82384419 53
0.89614522 2.1233435 0.82292998 57
0.7414397 2.1201985 0.82863158 58
0.74845773 2.1168232 0.82895559 59
0.80053967 2.1099925 0.82841176 53
0.69254822 2.1430445 0.82636428 57
0.69927913 2.141906 0.82637489 57
0.55168742 2.1778126 0.82363945 21
-3.7973711 7.2214742 -0.15444048 1
0.78497046 2.1093383 0.82901311 59
0.84706354 2.1113551 0.82660758 53
0.57426274 2.1734452 0.82398784 20
0.82305717 2.1069105 0.8281343 56
0.83876908 2.1092927 0.82722032 55
0.97745335 2.1021824 0.82274526 51
0.92840189 2.1247923 0.82141626 55
0.70675361 2.1406164 0.82638663 57
0.61819547 2.1621518 0.82499564 49
0.88997155 2.1270113 0.8226074 53
0.61089826 2.1650915 0.82467127 31
0.55765378 2.161319 0.82615209 18
0.59677118 2.1688445 0.82433611 20
0.6305632 2.1405454 0.82814419 49
0.75431454 2.1096244 0.82990348 58
0.96728826 2.1217687 0.82022595 53
0.83004087 2.1052754 0.82814533 56
0.66289091 2.1498008 0.82600468 51
0.64530104 2.1344562 0.82879323 52
0.63784838 2.1355314 0.82878149 50
0.89996159 2.1080124 0.82512641 55
0.85869628 2.1268101 0.82380974 53
0.67475939 2.1279447 0.82915246 51
0.79148901 2.1038895 0.82964915 55
0.58989376 2.1756356 0.82338661 22
0.77420872 2.1297715 0.82617992 62
0.71672648 2.1127586 0.8304702 50
0.73096424 2.1442912 0.82517308 61
-7.3019943 2.1178946 -0.097265318 1
0.56371927 2.146775 0.82835197 14
0.81441355 2.1372576 0.82373995 59
-7.309341 2.0912225 -0.097276285 1
-7.2870226 2.1711583 -0.097242907 1
-7.3709335 1.8514216 -0.097368076 1
-7.3165946 2.064527 -0.097287133 1
-7.3233986 2.0391419 -0.097297385 1
-3.1722662 7.6536584 -0.16911109 1
-7.3578205 1.9051739 -0.097348645 1
-3.7721379 7.2358546 -0.15440114 1
-7.3145409 1.8661377 -0.089145258 1
-5.2160692 5.9299302 -0.12535472 1
-2.8785889 7.7815361 -0.16865249 1
-5.2346721 5.9124608 -0.12538357 1
2.1787505 2.0759451 0.7329616 6
3.5748534 1.9852431 0.5730896 1
2.8060617 2.0474074 0.66542894 2
2.0519612 4.1719165 0.45802006 10
2.7543132 2.0476687 0.67160511 20
2.2020979 2.0736108 0.7308082 4
3.6412477 1.9785782 0.5647465 3
2.2494967 2.0812151 0.72493798 6
3.5327411 1.9895217 0.57834214 17
2.819298 2.0437839 0.66419834 2
2.3426354 2.0802867 0.71507239 38
3.6715767 1.9817196 0.5604139 14
2.1567614 2.0795429 0.73480415 3
3.4075897 2.0021677 0.59378874 28
3.5480731 1.983531 0.57680202 16
2.1365166 2.0709951 0.73790121 7
3.3354821 2.0002856 0.60337454 4
3.0700049 2.0209517 0.6354956 2
2.7852418 2.0446379 0.66821218 3
2.2226043 2.0817046 0.72771156 3
2.2378566 2.083848 0.72585827 7
3.315357 2.0019424 0.60584587 4
2.1584172 2.0675619 0.73605853 7
2.1829891 2.0668709 0.73359418 6
3.4162199 1.9924982 0.59348971 12
2.6665509 2.0436254 0.68241775 2
2.2527201 2.0701685 0.72588187 6
3.6292439 1.9870514 0.56566608 3
3.3926735 2.0069308 0.59532964 9
2.2663147 2.0710154 0.72433889 6
2.7309611 2.0567989 0.6734454 4
2.0306728 4.1614237 0.4608027 12
2.3367286 2.0887122 0.71475011 7
2.8478458 2.0525861 0.65986276 6
2.2775924 2.0685749 0.723418 3
3.0439103 2.01634 0.63920915 2
3.5817635 1.9739188 0.57310069 1
3.6750691 1.968051 0.56104541 9
3.5241022 1.9996272 0.57864124 4
1.9971783 4.1621609 0.46262732 15
2.327431 2.0921345 0.71536118 3
2.673315 2.0358782 0.68242854 2
2.7569075 2.0353947 0.67254794 7
3.2841506 1.9952185 0.61049002 6
2.0109572 4.1544981 0.462962 14
2.7546721 2.0625105 0.67004097 23
3.5070796 2.0044205 0.58049154 9
3.4483898 1.982601 0.59009886 3
3.4248188 1.982794 0.59319049 3
2.7237668 2.0651543 0.67343396 4
2.3201158 2.0990813 0.71534956 6
3.3823524 2.0154176 0.59593898 9
5.8590493 -0.64901471 0.29765132 47
5.9233479 0.12291107 0.29335627 42
5.8857293 -0.32205206 0.29799935 47
5.8813748 -0.36067176 0.29830614 49
5.8726888 -0.47579199 0.29829487 49
5.9325829 0.25811243 0.29117796 38
5.9885335 0.85710633 0.27310696 45
6.0012884 1.0216527 0.26686624 47
5.929502 0.23839977 0.29179922 40
5.9743385 0.71547216 0.27840641 43
5.9064646 -0.071012653 0.29614958 45
5.9203663 0.065308131 0.29397854 42
6.000927 1.0011818 0.26749191 45
5.888793 -0.3027783 0.2976909 49
5.9565201 0.51460552 0.28463998 36
5.9054384 -0.12839063 0.29614916 47
5.9677835 0.65477443 0.28058752 40
5.8723459 -0.45629311 0.29860678 50
4.3330131 1.9262513 0.47322455 15
5.8984818 -0.16710027 0.29707763 43
5.9147587 0.026281135 0.29490915 45
5.8637409 -0.57044595 0.29828277 47
5.9825044 0.81690341 0.27497557 45
5.9127464 -0.033120789 0.29522005 43
5.9081583 -0.090495981 0.29583976 43
5.8807621 -0.39855969 0.29799315 50
5.9563146 0.49480283 0.28495291 40
3.9393351 1.9583312 0.52579349 12
5.9270806 0.19919209 0.29242197 40
5.9283075 0.16111912 0.29242465 38
5.8711991 -0.51462793 0.29798052 54
5.9448686 0.4159303 0.28775242 35
5.9128408 0.0067979181 0.29521939 42
5.8635392 -0.55287665 0.29859492 54
5.9385362 0.2976079 0.28993502 38
5.9916086 0.93855369 0.2706072 47
5.9146333 0.045758944 0.29490855 45
5.9709191 0.69505405 0.27934 45
5.985321 0.79718143 0.2749804 47
5.9263511 0.21871449 0.29242042 40
5.9999866 0.9602747 0.26874271 45
5.948257 0.39648119 0.28744522 40
5.9375687 0.27794459 0.2902467 35
5.9664717 0.59491795 0.28183815 40
5.9565296 0.55619007 0.28401336 43
5.86761 -0.59037375 0.29735073 54
5.9167829 -0.01268505 0.29460022 43
5.8655157 -0.60968614 0.29734781 54
5.9316916 0.17979674 0.29180387 38
5.8937626 -0.28358769 0.29707262 49
5.8813071 -0.41806766 0.29768154 47
5.8840909 -0.37933266 0.29768512 47
5.9098039 -0.10901897 0.29552981 45
5.9448471 0.35886151 0.28837928 36
5.9476357 0.37674895 0.28775755 36
5.9891601 0.91686279 0.2715424 49
5.9665484 0.5750553 0.28215149 42
5.9962282 0.8977384 0.27092817 43
5.9556131 0.45620447 0.2855784 38
5.9525361 0.53600013 0.28494611 40
5.9604321 0.61414677 0.28245392 40
5.903789 -0.186719 0.29614773 45
5.9579244 0.47615555 0.28495583 38
5.9003758 -0.22551896 0.29645607 49
6.0043879 0.98139447 0.26749775 45
5.9276938 0.10347275 0.29273781 42
5.960217 0.63400143 0.28214034 42
5.9315453 0.31683475 0.29086223 36
5.9027181 -0.052501086 0.29676899 45
5.8848495 -0.26371256 0.29862246 50
5.932261 0.3384392 0.29054996 38
5.9880695 0.77745515 0.27498516 45
5.9972219 0.87865371 0.27124307 45
5.9280066 0.084922567 0.29273871 42
5.8747106 -0.34082028 0.29954675 49
5.9937997 1.0407143 0.26747987 45
5.9868321 0.75718939 0.27560934 45
5.8515739 -0.62764615 0.29920349 50
5.8837624 -0.24424782 0.2989333 49
5.893106 -0.1475182 0.2980074 47
5.8660254 -0.43633902 0.29984799 50
5.8575678 -0.53281265 0.29983667 54
5.9394422 0.43520498 0.28836921 36
4.3138232 1.9341551 0.47538438 3
5.9150095 0.14124303 0.29459426 43
5.9070525 -0.20630637 0.29552749 45
5.8808336 -0.49599993 0.29674372 50
3.9238131 1.966159 0.52733338 3
5.9659295 0.73438752 0.27933136 47
5.9831195 0.67655045 0.27779528 43
5.9717999 0.8354544 0.27620986 47
4.3482928 1.9172373 0.47168443 1
5.8558693 -0.70733613 0.29702184 49
5.6666431 -3.1534207 0.19728254 52
5.7997446 -1.3091071 0.28849861 38
5.5745883 -4.2705469 0.10768025 61
5.8103085 -1.1919585 0.29101571 40
5.549933 -4.5929952 0.077612802 57
5.6200423 -3.727107 0.15404515 61
5.6554284 -3.297817 0.18694316 60
5.8259206 -1.0356698 0.29353997 47
5.6834526 -2.9894361 0.20794301 43
5.688168 -2.894733 0.21451877 47
5.8390388 -0.87974972 0.29574749 47
5.6248393 -3.6754627 0.15811889 56
5.8222718 -1.0548341 0.29353461 45
5.6598101 -3.2263861 0.19226734 55
5.8378849 -0.89927936 0.29543313 45
5.8419256 -0.8614893 0.2957516 49
5.5634408 -4.41396 0.094525144 65
5.7962275 -1.3486511 0.28755525 42
5.6388168 -3.4961929 0.17221634 61
5.1976194 -2.1065707 0.33825424 12
5.6020694 -3.966433 0.1339982 55
5.8520746 -0.76566201 0.29639134 49
5.8507972 -0.74586612 0.29701462 49
5.6761951 -3.034514 0.20542966 43
5.6954656 -2.8265333 0.21859615 45
5.5588331 -4.5045924 0.085759446 65
5.6048026 -3.9397438 0.13619201 60
5.8004351 -1.289113 0.28912494 40
5.5580134 -4.4721985 0.089198992 60
5.568213 -4.3868017 0.096722171 60
5.5667877 -4.3546042 0.10016076 55
5.8166847 -1.1333517 0.29196313 42
5.6642661 -3.2037055 0.1935253 52
5.8167119 -1.0935048 0.29321381 42
5.5600448 -4.4424214 0.092017457 61
5.8234963 -1.0163729 0.29447433 47
5.814436 -1.1728351 0.29102179 40
5.7991529 -1.3696306 0.28630874 42
5.8071566 -1.2514392 0.28944758 42
5.6348104 -3.5201528 0.17064612 60
5.6026549 -3.9095526 0.13931672 60
5.6051331 -3.8829393 0.14151017 61
5.8243742 -1.0751188 0.29259977 42
5.6674852 -3.1790934 0.19509427 50
5.6930475 -2.7799997 0.22234581 43
5.6473007 -3.3702857 0.18192594 56
5.6150556 -3.7512531 0.15247349 60
5.6764264 -3.0100298 0.20730667 43
5.6460261 -3.474416 0.17316584 60
5.5788598 -4.1834116 0.11581974 61
5.6323442 -3.545223 0.16876559 56
5.683414 -2.9406004 0.21169643 45
5.6886702 -2.9678748 0.20888935 43
5.8128619 -1.1126337 0.29320815 43
5.6489992 -3.345407 0.18380533 60
5.6454926 -3.3951955 0.18004636 60
5.8398457 -0.82281524 0.29699901 47
5.8357844 -0.95917654 0.29417959 47
5.8088274 -1.1516695 0.29257694 42
5.8041849 -1.2106377 0.29131928 42
5.5827093 -4.2165403 0.11207204 65
5.5892978 -4.1320448 0.11958949 65
5.6138711 -3.8610182 0.14246194 60
5.7981696 -1.389668 0.28568193 43
5.6131763 -3.7777119 0.15028088 65
5.8505049 -0.80473167 0.29576394 47
5.8018532 -1.2301586 0.29100326 40
5.6198573 -3.8090537 0.14653759 61
5.8328428 -0.99826604 0.29355004 45
5.6680369 -3.1041923 0.20103811 55
5.793222 -1.3277086 0.28880158 36
5.204577 -2.0904329 0.33826485 15
5.5884318 -4.0430613 0.12834661 52
5.8370867 -0.84106904 0.29699507 49
5.6810031 -3.0619757 0.20262192 47
5.5680366 -4.2941637 0.10610609 60
5.6379576 -3.5758431 0.16533343 55
5.6517591 -3.2699118 0.18975262 55
5.6639848 -3.1267908 0.19978069 55
5.8287058 -0.91846639 0.29635778 49
5.6518817 -3.4254799 0.17661564 61
5.8274131 -0.93797344 0.29604325 45
5.244247 -2.0267539 0.33644858 17
5.8362942 -0.9790653 0.29355505 45
5.6885624 -2.8014367 0.2214006 43
5.5570073 -4.5669618 0.079500601 60
5.5413213 -4.6503472 0.072594449 51
5.5961504 -4.07832 0.12397937 61
5.594346 -4.1063833 0.12147407 65
5.6514926 -3.4515502 0.17442541 60
5.57794 -4.1528163 0.11894636 61
5.6368842 -3.6021054 0.16314225 47
5.8455315 -0.72557551 0.29825738 47
5.5833201 -4.2472582 0.10894494 61
5.6606431 -3.3268371 0.18382327 60
5.6297832 -3.7063682 0.15468578 65
5.5412598 -4.6177273 0.076035306 52
5.5913396 -3.9871848 0.13335602 55
5.6982408 -2.8760262 0.21453421 50
5.857193 -0.78602988 0.29514828 47
5.866147 -0.68903601 0.29578611 47
5.618114 -3.6435204 0.16186218 56
5.8126006 -1.2718133 0.28789225 40
5.7012687 -2.8535774 0.21578996 50
5.1793733 -2.1187863 0.34010306 12
5.5868101 -4.0127068 0.13147216 55
5.6496482 -3.243099 0.19225173 52
5.62252 -3.8390839 0.14341383 65
5.5621533 -4.3199563 0.1042202 56
5.6780305 -2.9134047 0.21450327 50
5.6839714 -3.0885229 0.20012425 50
5.5639653 -4.540935 0.081388161 60
5.1683321 -2.1340916 0.34071174 15
5.2354841 -2.0834675 0.33424595 19
5.612864 -3.6127801 0.16529481 52
5.2463694 -2.067878 0.33363691 26
5.2572045 -2.0522401 0.33302793 26
0.5849179 -1.1359651 0.98613888 57
0.71943086 -1.1560303 0.9775902 57
0.65908128 -1.1436844 0.98218822 49
0.67288566 -1.1479048 0.98095852 52
0.6154449 -1.1409841 0.98430973 51
0.81262958 -1.1698599 0.97054088 12
1.4348859 -1.457947 0.88235623 27
0.68261284 -1.1511769 0.98003525 54
1.4662552 -1.4462781 0.8808409 28
0.66396779 -1.1463938 0.98157024 48
1.3755867 -1.496094 0.88288963 27
1.3631413 -1.4998963 0.88349587 25
0.55538416 -1.1320428 0.98765677 48
0.81300145 -1.1825087 0.96866453 12
0.49021333 -1.1309354 0.98943168 42
0.64113766 -1.1425074 0.98309863 50
1.3409022 -1.524405 0.88221002 27
0.67802519 -1.1504971 0.9803409 55
0.55105692 -1.1308712 0.98796284 47
0.47411594 -1.1290712 0.99003208 48
0.66796768 -1.1452326 0.9815765 52
0.61052412 -1.1381235 0.98492771 54
0.81272924 -1.1591368 0.97210515 12
1.4469343 -1.4537463 0.88174933 29
0.54674107 -1.1296835 0.98826891 52
0.62757593 -1.1379154 0.98432875 54
0.56446421 -1.1362718 0.98673254 39
1.4594812 -1.4490569 0.88114321 26
1.508256 -1.4481684 0.87652671 27
0.51779807 -1.1267637 0.98947489 49
0.65348226 -1.1391096 0.98311794 54
1.3429302 -1.515947 0.88315159 25
0.64564472 -1.1433315 0.98279285 52
0.60608912 -1.137163 0.9852336 52
0.48231465 -1.1320035 0.98941928 42
0.58179271 -1.1406969 0.98550838 54
0.70689964 -1.1580651 0.97788346 56
1.3323895 -1.5464866 0.88000697 28
0.5138635 -1.127401 0.98946869 43
1.4870083 -1.4424508 0.87930906 29
0.53794515 -1.1272948 0.98888081 52
1.4223202 -1.4624321 0.88296229 27
1.4712973 -1.4423146 0.88084871 27
0.52140331 -1.1241646 0.98979336 50
0.81329042 -1.1951746 0.96678799 12
0.60166311 -1.136186 0.9855395 51
0.501463 -1.1253228 0.99007493 45
1.4844242 -1.4495623 0.87867939 29
5.1185107 -5.0516653 0.075693294 3
0.62486774 -1.144729 0.98338598 56
1.3785312 -1.4892141 0.88351983 25
0.6952427 -1.1493399 0.97974217 58
0.57780969 -1.1415572 0.98550212 54
0.59948671 -1.1448122 0.98428476 51
0.5314855 -1.1344651 0.98793221 51
0.6351164 -1.1359386 0.98434055 50
1.4125056 -1.4819257 0.88138294 28
0.54207522 -1.1265372 0.98888725 55
0.69357735 -1.1581414 0.97848827 56
1.4957556 -1.4430301 0.87838417 26
0.81864452 -1.1395137 0.974617 2
0.59504801 -1.1438087 0.98459065 52
0.47861406 -1.1344762 0.98910064 46
0.71311456 -1.1498017 0.97883165 54
1.3917094 -1.4968474 0.88135064 28
1.3268722 -1.5617567 0.8784343 29
0.57097131 -1.1288729 0.98768121 48
0.49924803 -1.1376311 0.98819453 45
0.58757806 -1.1292987 0.98708153 56
0.6895327 -1.1593918 0.97848195 55
0.81144983 -1.2150398 0.96396971 12
0.63054299 -1.1330599 0.98495901 51
0.81850463 -1.1503015 0.97305262 3
0.80864352 -1.2330937 0.96146268 12
0.81007499 -1.2240641 0.96271622 12
0.69865179 -1.1461877 0.98006034 57
0.50479174 -1.1208235 0.99070579 42
1.3449126 -1.5074928 0.88409317 27
0.64699543 -1.1327156 0.98435915 51
0.71339422 -1.164265 0.97664231 52
0.52485526 -1.1195734 0.99042439 51
0.81067789 -1.1428739 0.97460455 10
1.4200094 -1.4813361 0.88076895 32
0.51176339 -1.1397343 0.98758847 45
1.4254317 -1.4773434 0.88077742 32
1.3889031 -1.4818811 0.88353598 29
1.3943272 -1.478003 0.88354439 27
1.3312392 -1.5213053 0.88344622 27
0.48440877 -1.1177734 0.99161232 41
0.53608805 -1.1396714 0.98700088 49
1.4447591 -1.4404669 0.88362283 26
1.3520747 -1.4954967 0.88504279 26
1.3205858 -1.5399861 0.88186556 27
5.1956067 -5.060041 0.066428348 1
0.56542617 -1.1219579 0.98892385 45
0.49611211 -1.1440706 0.9872511 46
0.62279546 -1.1534038 0.98213142 55
0.80473435 -1.1858286 0.96865159 12
1.4310873 -1.4434729 0.88454002 26
1.3410158 -1.5479572 0.87908196 40
1.3773644 -1.5092895 0.88101548 27
0.82265186 -1.1270378 0.97618735 1
0.72093272 -1.1471895 0.97884387 57
1.4203038 -1.4491405 0.88483608 27
0.56321019 -1.1506313 0.98454076 47
5.1670012 -5.0655446 0.068886563 1
1.3435274 -1.4941339 0.88596791 22
1.3301295 -1.5784043 0.87593681 48
1.4168488 -1.4983025 0.87888712 28
0.80778253 -1.1033334 0.98054373 2
-1.9545081 -5.6456895 0.20163475 84
0.4570547 -1.1211323 0.99156946 47
0.30795658 -1.1158042 0.99321246 40
0.27260196 -1.1203759 0.99221838 30
0.44101459 -1.1168334 0.99248278 52
0.38964307 -1.1126894 0.99365354 48
0.28042504 -1.1207721 0.99223071 29
0.26106846 -1.1196917 0.99220026 23
0.253113 -1.1211306 0.99187493 22
0.29216439 -1.1212641 0.99224913 30
-2.0005679 -5.5904226 0.20688002 86
0.35837269 -1.1059299 0.99485576 48
0.42931315 -1.1179004 0.99246442 52
-2.0792105 -5.5116677 0.21332513 84
-2.1955974 -5.4134698 0.21971063 86
0.46141487 -1.1246186 0.99095064 46
0.43693188 -1.1152358 0.99278921 51
0.24102031 -1.1221824 0.99154305 30
-2.4639606 -5.2103415 0.22898392 1
0.28450891 -1.117003 0.99286276 31
0.41740644 -1.1188594 0.99244577 36
0.2652922 -1.117977 0.99251974 24
-2.2120516 -5.3970141 0.22093593 86
0.37774956 -1.1072972 0.99457335 51
0.2450925 -1.1205282 0.99186236 33
-2.1454413 -5.4518223 0.21760009 84
-2.1808338 -5.431231 0.21816979 84
0.37027723 -1.1095486 0.99424875 52
0.35055619 -1.1001529 0.99578196 46
0.40536776 -1.1117812 0.99367821 38
0.38161424 -1.1071354 0.99457937 50
-2.0341237 -5.5612626 0.20901679 92
0.46557099 -1.1261263 0.99064434 42
0.40978867 -1.1194061 0.99243379 38
0.39384896 -1.1184034 0.99272162 47
-2.1619854 -5.4377465 0.21851246 86
0.34292847 -1.1061723 0.9948315 55
0.40117103 -1.1100664 0.99398446 46
0.24949457 -1.1169043 0.99249488 30
0.44452062 -1.1145043 0.99280113 51
-1.9414046 -5.6701441 0.19883995 86
0.35458866 -1.1099608 0.99422413 48
-2.2460814 -5.3764443 0.22150783 89
-2.1144116 -5.4874673 0.21452092 84
0.45356101 -1.1254858 0.99093831 50
-2.2317238 -5.3898754 0.22059201 92
0.33902407 -1.0982981 0.99607664 52
0.44841003 -1.1141093 0.99280721 51
-2.0455363 -5.537044 0.21181421 82
-2.0984349 -5.5032091 0.21329479 84
0.31177676 -1.119836 0.99259275 46
0.34666681 -1.0962559 0.99640149 51
0.36207557 -1.0999115 0.99580002 47
0.30416432 -1.1117598 0.99383211 41
0.33135343 -1.1002868 0.9957518 51
0.29987696 -1.125473 0.99163556 36
0.42475984 -1.1103537 0.99370861 45
0.41378355 -1.123087 0.99181437 36
0.38538477 -1.1049865 0.99489814 52
0.43374434 -1.1234609 0.99153292 54
0.33521754 -1.1121391 0.99388093 50
0.31961903 -1.1179837 0.9929179 47
0.42072734 -1.1086972 0.9940151 41
-2.0200677 -5.5822372 0.20684926 89
-2.2810862 -5.3485112 0.2230166 92
0.28864464 -1.1112448 0.99380773 34
0.27611539 -1.1284722 0.99097258 29
-1.9817936 -5.6003647 0.20659684 92
0.29581854 -1.1292981 0.99100357 31
-2.3465874 -5.293848 0.2260413 92
0.36598867 -1.0958494 0.99643183 46
-2.1246324 -5.459074 0.2179458 82
0.39809543 -1.1241015 0.99178982 47
0.31562474 -1.1238544 0.99197316 51
0.32368881 -1.0982713 0.99605256 43
0.25622579 -1.1332285 0.99000287 24
-2.2656932 -5.3691816 0.22116391 92
-2.0593483 -5.5160184 0.21398215 79
0.37439397 -1.1212643 0.99237829 52
0.26987025 -1.1063747 0.9944039 25
0.32754254 -1.0943475 0.99668431 48
-2.2892578 -5.318089 0.22675757 89
-1.9644752 -5.6138997 0.20568572 86
-2.3235855 -5.2988057 0.22701614 89
-7.2780571 -1.3492525 -0.066495255 1
-2.305073 -5.3080521 0.2270454 89
-2.4109807 -5.283011 0.22281127 1
-2.429405 -5.2733946 0.22278212 1
-2.4477954 -5.2637148 0.22275303 1
-2.464318 -5.2549481 0.22272693 1
-7.3119264 -1.3841836 -0.072805122 1
0.93885773 2.1310239 0.89889485 52
0.99390769 2.1270852 0.89751899 46
0.83193845 2.1422377 0.90067667 53
0.81609756 2.1417928 0.90113926 54
0.70990413 2.1549263 0.9019472 46
0.63457352 2.1647336 0.90207243 47
0.92365044 2.1311665 0.89935845 51
0.29440513 11.11443 -0.1949838 2
0.78570092 2.1443594 0.90157896 53
0.80861878 2.1434646 0.90112752 49
-0.20470899 11.077538 -0.19284196 2
0.57586932 2.1820796 0.90076119 16
0.82445806 2.1439648 0.90066487 53
0.64278626 2.1655807 0.90184158 46
0.90055531 2.1374283 0.89932209 50
0.80113375 2.1451101 0.90111572 53
0.61997378 2.1707196 0.90156192 46
0.76284611 2.1490529 0.90154296 54
0.93034291 2.1293015 0.899369 51
0.44771403 11.11989 -0.19547446 1
0.877536 2.139307 0.89977336 50
0.40696982 11.122212 -0.19578214 2
0.95372033 2.1267452 0.89891827 52
0.75547767 11.144297 -0.19889136 2
-0.051922742 11.083927 -0.19260211 2
0.58348477 2.1812196 0.90077317 17
0.66424084 2.1543741 0.90285045 46
0.74820799 2.1519263 0.90151989 55
0.8460452 2.1368642 0.90094268 57
0.87006497 2.1411934 0.89976162 53
-0.2823593 11.079445 -0.19369514 2
0.97673845 2.1240451 0.89846706 49
0.60631257 2.1784816 0.90080911 21
0.7395916 2.1454875 0.9024815 54
2.0899854 4.2187672 0.61158532 14
0.67299259 2.1610503 0.90188915 45
0.72527474 2.1562202 0.90148383 53
0.91516119 2.1293836 0.89983267 50
-0.090304889 11.074574 -0.1916873 2
0.83812678 2.136709 0.90117401 50
0.59016323 2.1724479 0.90175879 18
0.56452274 11.135964 -0.19748493 2
0.56001264 2.1777954 0.90146762 21
2.0707083 4.2138586 0.61301756 14
0.96818191 2.1224742 0.8989411 52
0.85303152 2.1331332 0.90119749 51
0.1028722 11.088251 -0.19235916 2
2.0397599 4.2222009 0.61345619 10
-0.16761237 11.071334 -0.19180866 2
