# .PCD v0.7 - Point Cloud Data file format
VERSION 0.7
FIELDS x y z intensity
SIZE 4 4 4 4
TYPE F F F F
COUNT 1 1 1 1
WIDTH 1369
HEIGHT 1
VIEWPOINT 0 0 0 1 0 0 0
POINTS 1369
DATA ascii
2.5093269 2.165355 0.46477643 14
2.5096726 1.9928629 0.4922246 18
2.5053627 2.2863777 0.4454219 24
-1.1866711 4.8226385 1.6970635e-05 9
2.5094039 1.9787006 0.49447396 14
2.5088685 2.0623379 0.48142424 14
2.5092509 2.1957166 0.45982674 23
2.5141673 2.4945319 0.40853944 13
2.8596072 1.8714668 0.44823626 32
2.5155017 2.4439435 0.41709074 14
1.7311213 2.9565661 0.41719809 34
-1.1357958 4.834322 0.00099627499 8
2.5072632 2.178453 0.46297327 21
2.8436859 1.8732762 0.4509106 32
0.23752017 1.1301006 0.90798348 75
-0.65914637 4.9384327 0.0053419303 8
2.5113189 1.926948 0.5021264 16
0.30742088 1.0110586 0.93643951 93
-1.202903 4.8154426 0.00044135572 8
-1.0840468 4.8396106 0.0033270549 12
2.511857 1.9410194 0.49987742 14
-0.42427337 5.013454 -0.0019391346 12
2.8215497 1.8703129 0.45537493 33
2.5120089 2.5453575 0.39998683 13
2.5173028 2.4632103 0.4134939 13
-0.37200338 5.0230575 -0.0023071337 11
2.5157754 2.427999 0.41979095 13
-1.0092355 4.8366547 0.0088433456 12
-0.95920163 4.8462472 0.009821577 14
2.7870572 1.8706567 0.46161941 40
2.5157356 2.5677948 0.39549318 13
2.5074217 1.8959458 0.50751978 20
-0.9771288 4.8454623 0.0088936519 12
2.5040832 2.2525375 0.4512693 21
2.5150797 2.4102545 0.42293951 13
2.5057609 2.0457611 0.48456898 14
2.5111446 2.2130201 0.45668003 20
2.5102756 2.5979016 0.39098498 13
2.5040572 2.3010316 0.44317004 20
-1.2220972 4.817462 -0.0013883876 8
2.5155592 2.5858212 0.39234319 13
0.31078014 1.0189359 0.93464506 100
2.511282 2.0936792 0.47602859 16
2.5133977 2.3748686 0.42923626 13
-0.74601775 4.9241405 0.0043060016 9
-0.73005384 4.933598 0.0029811095 9
1.7419124 2.9016991 0.427564 47
-0.76404613 4.9241419 0.0033778381 9
-0.71115702 4.9336548 0.0039107036 8
0.2420947 1.122659 0.9097904 83
-0.35393566 5.0216331 -0.0013788509 12
-1.1155534 4.8282275 0.0037277173 9
0.24646586 1.1171424 0.91114712 80
2.5141673 2.0110154 0.48863205 16
2.5140998 2.1550083 0.46568397 14
-0.64238685 4.9397902 0.0058181714 8
2.5057056 2.017287 0.48906854 14
2.5137737 1.9564196 0.49718073 19
-1.0975837 4.8295245 0.0046556424 9
2.5105581 2.5080135 0.40673384 13
2.5045397 2.1313829 0.47106823 15
-0.80148011 4.9376359 -0.0016301441 9
2.5119324 2.2449496 0.45128182 20
2.5022552 1.9048071 0.50706154 19
2.5035915 2.1156304 0.47376654 14
-0.40790558 5.0237837 -0.0037133265 12
2.507884 2.6125932 0.38873139 13
2.5092769 1.8848997 0.50887257 19
2.7997894 1.866789 0.45983985 39
2.5025599 2.0999103 0.47646466 14
2.499855 2.2647007 0.44991276 18
2.7384429 1.8730617 0.47009119 37
2.5143061 2.2317576 0.45308539 19
-0.99440199 4.8488345 0.0070667695 12
-1.1721429 4.8353629 -0.0017602014 9
-0.68996078 4.9181986 0.0084432792 8
2.510524 1.8595415 0.5124743 14
-0.44087476 5.0049963 -0.00061531545 12
2.5014987 2.0275178 0.48816183 14
2.511409 1.8734827 0.51022595 20
2.5018251 2.3457792 0.43596712 13
2.5007026 2.3282113 0.43911508 15
1.7389152 2.9463947 0.4185603 33
-0.4586466 5.0041823 -0.0010931062 12
1.7444524 2.9329391 0.42081878 42
-0.81915194 4.9355364 -0.0021076966 8
2.4986768 2.3114371 0.44226149 16
-0.78079778 4.918375 0.0038016271 9
0.30417216 1.0012223 0.93868417 90
-0.67247409 4.9158421 0.0098206233 7
-1.0687675 4.8501496 0.00200109 15
2.5056083 2.5200245 0.40537611 13
2.5241494 2.4883704 0.40810534 13
2.5208533 2.3997462 0.42384854 15
-1.0245287 4.8263054 0.010169191 10
2.5185766 2.086067 0.47604021 18
0.24979113 1.1252127 0.90935254 93
2.7693117 1.8841585 0.46294102 34
0.26830715 1.0795857 0.9201802 80
0.30061424 1.0030619 0.93822861 96
0.29683459 1.0107315 0.93642294 93
-1.15782 4.8459206 -0.003087597 11
-0.39175242 5.0359898 -0.0059375335 11
0.25426686 1.1177222 0.91115934 96
-0.83727258 4.9352698 -0.0030359793 7
-0.51499873 5.0245676 -0.0079304744 9
-0.93796557 4.8377643 0.013004465 15
-0.53186965 5.0177302 -0.0070571471 10
-0.49872464 5.0351944 -0.0097047854 9
2.7180848 1.8706166 0.47410837 40
-0.62291396 4.9316931 0.0085483026 9
-0.89093703 4.8619518 0.010378284 9
2.4888403 1.8158014 0.52278888 1
2.5227771 1.8055375 0.51834339 1
0.29355916 1.0086576 0.93686771 87
0.26305881 1.1026891 0.91477269 93
2.5044646 1.8032038 0.52191389 1
1.7174848 2.9543645 0.4189764 36
-0.87130004 4.9290705 -0.0035391618 12
0.25829911 1.1160471 0.91161561 100
2.4861941 1.8007653 0.5254845 1
1.7106757 2.9940498 0.41131648 45
-0.88896769 4.9267206 -0.0040167142 12
-0.5857715 5.0160456 -0.0089413691 8
-0.91911668 4.8346329 0.014833732 13
0.27948007 1.0080034 0.93684566 74
-0.85722882 4.9425144 -0.005766945 9
0.27541095 1.017537 0.93458956 68
1.7112682 2.968014 0.41671678 39
-0.55140585 5.0261884 -0.0097873975 9
-0.90355963 4.8406525 0.014408154 15
2.7069511 1.8753026 0.47544053 40
1.7360152 3.1045859 0.38570961 16
-0.58667243 4.9286814 0.010854764 8
-0.56963271 5.0269003 -0.010715799 9
-0.60241586 4.9177775 0.012629909 9
1.734726 3.1308072 0.38030812 50
1.7010247 3.0006099 0.41085133 36
2.5197034 1.7908595 0.52103829 1
2.5597663 1.7972099 0.51300281 2
-0.46895236 4.9571395 0.009239478 9
2.6988657 1.8823597 0.47587755 37
2.6801121 1.8808509 0.47944739 29
1.9889708 3.1304307 0.35506299 32
2.0481801 2.9166832 0.39160243 18
2.0188625 2.9606545 0.38615671 36
2.0182359 3.159029 0.34611025 9
2.0253057 2.9479942 0.38796666 36
1.8389858 2.2145531 0.5541532 2
1.9925189 3.1638041 0.34786943 6
2.4805708 1.7463242 0.53447479 2
2.0380516 2.9451501 0.3870869 40
2.0473402 2.9375014 0.38755158 34
5.5612817 2.9676082 -0.2093503 1
6.0274992 2.0112569 -0.21489723 1
6.2966566 -0.87608844 -0.21171577 0
5.7300797 2.679198 -0.21222873 1
6.3787694 -0.25332785 -0.21699841 0
5.7494826 2.6442142 -0.21264739 1
5.9804826 2.12865 -0.21407361 1
6.3214316 -0.75202197 -0.213479 0
6.2935615 -0.89689416 -0.21172018 1
6.0912619 1.8336512 -0.21569319 1
5.9289918 2.265697 -0.21460719 1
5.9897046 2.1096137 -0.21450873 1
5.5525813 2.9868023 -0.20981427 1
5.8550401 2.4161313 -0.21247692 1
5.9582629 2.1866703 -0.21410973 1
5.5036569 3.0553911 -0.20809288 1
5.5399122 3.0049293 -0.20938464 1
6.1795378 1.5747102 -0.2182488 1
6.3616352 -0.4203817 -0.21522231 0
6.3335314 -0.64847749 -0.21346207 1
5.5126104 3.0363443 -0.20762856 1
6.3494892 0.64589983 -0.21706291 0
6.339993 -0.58563232 -0.21345325 1
6.3345079 0.77276021 -0.21708901 0
6.3695364 -0.3585355 -0.21611102 0
6.2209625 1.3696364 -0.21592982 1
6.0469298 1.973377 -0.21621557 1
6.3901162 0.14583676 -0.21878834 0
6.3681388 0.43877009 -0.21702929 0
6.1113925 1.7758635 -0.2161103 1
6.3160362 -0.79379559 -0.21348663 1
6.3288584 -0.69034094 -0.21346863 0
5.8430057 2.4338109 -0.21159644 1
6.2492418 -1.1014733 -0.20953615 1
6.3213816 0.8125301 -0.21531089 0
6.3996377 0.020081751 -0.22057052 0
6.3905449 -0.12686731 -0.21878202 0
6.2625437 -1.0611918 -0.21086569 1
6.278069 -0.95831114 -0.21039362 1
5.9713206 2.169127 -0.21543868 1
6.3558211 0.58393556 -0.21705158 0
6.3649282 0.48087737 -0.21703525 0
6.3546667 -0.46214274 -0.21433254 0
6.3692842 0.52258199 -0.21882887 0
6.2818699 1.018594 -0.21357758 1
5.665225 2.8101866 -0.21278317 0
6.2356668 -1.1416239 -0.20820685 1
6.2316456 -1.1622151 -0.20821269 0
6.3331685 -0.66962951 -0.2139122 1
6.3897238 0.27066988 -0.21969147 0
6.366858 -0.33725029 -0.21521576 0
6.3990946 0.083588175 -0.22057267 0
6.3724685 0.37451753 -0.21702118 0
5.5209646 3.0181794 -0.20716532 1
5.9058294 2.3017199 -0.2128448 1
6.3510737 -0.48299754 -0.21388789 1
6.3835936 0.23021212 -0.21790071 0
6.3596563 0.5429408 -0.21704479 0
6.2138739 1.4330412 -0.21774204 1
6.2654672 -0.9988032 -0.20906289 1
6.0149374 2.0291462 -0.21356757 1
6.2126193 1.4544907 -0.21864422 1
6.345613 -0.52481514 -0.21344574 0
5.8753562 2.3790741 -0.21334405 1
6.3743458 0.46042046 -0.21881957 0
6.1662045 1.594066 -0.21647055 1
6.3995304 0.041252121 -0.22057112 0
6.3035707 -0.81335086 -0.21125634 1
6.3927484 -0.19145229 -0.21967717 0
6.3497643 -0.56539601 -0.21523793 1
6.2206416 1.3273948 -0.21367998 1
6.3240433 0.79267585 -0.21530624 0
6.3918281 -0.023284959 -0.21878214 0
6.3987107 -0.10798319 -0.22056933 0
5.5762534 2.9291165 -0.2079763 1
6.3474083 -0.50383282 -0.21344335 0
6.3881831 -0.21140449 -0.21878405 0
6.3826637 0.33384392 -0.21880396 0
5.9501076 2.2287493 -0.21592303 1
6.059319 1.9553158 -0.21754546 1
6.156692 1.657173 -0.21828635 2
6.1992183 1.5154217 -0.21911629 1
6.2987409 0.91465557 -0.21354885 0
6.110095 1.7534238 -0.21431227 1
6.2965302 0.97831875 -0.21535333 0
6.3698473 0.35321185 -0.21612521 0
5.6117749 2.8768697 -0.20926912 1
5.7164636 2.7194335 -0.21360059 1
6.086061 1.8752059 -0.21750183 1
5.9878898 2.0864899 -0.21226151 1
6.3876863 0.31293195 -0.21969552 0
5.8972192 2.3426104 -0.21465869 1
6.3918724 -0.0021415886 -0.21878262 0
5.8562851 2.393749 -0.21067484 0
5.969748 2.1459732 -0.21319111 1
6.3657446 0.4174377 -0.21613295 0
6.334651 0.70793343 -0.21528788 0
6.0598845 1.9109895 -0.21439441 1
5.8136678 2.4897404 -0.21074374 0
5.696516 2.7328923 -0.21093269 1
5.8455887 2.4568224 -0.21429224 0
5.9951386 2.0667441 -0.21224971 1
5.7788181 2.5650403 -0.21080001 0
6.067956 1.9359477 -0.21798153 1
5.7294102 2.7023771 -0.21447976 1
6.1412382 1.6966813 -0.21741147 1
6.3641601 -0.31493881 -0.21432073 0
6.3593273 0.50160033 -0.21614476 0
5.7698321 2.5840251 -0.21081455 1
6.2118039 1.4738951 -0.21954568 1
5.62007 2.8575075 -0.20880599 1
6.3816876 -0.16997615 -0.21699555 0
5.4910984 3.0955145 -0.2103631 1
5.8227558 2.4696455 -0.21072908 0
6.1508718 1.6774853 -0.21829589 1
6.0188198 2.0529342 -0.21626134 1
6.3694692 0.56400251 -0.21972926 0
6.2546916 -1.0384728 -0.20817907 1
6.3653846 0.60611892 -0.21973653 0
5.9085565 2.3256526 -0.21554048 1
6.206902 1.3869058 -0.21370287 1
6.4012623 0.16729547 -0.22147079 0
6.1976643 1.5368689 -0.22001906 1
6.3473921 -0.62875569 -0.21614023 1
6.2195287 1.3055805 -0.21233161 1
5.6801848 2.7942734 -0.21410902 1
6.2020249 1.4073951 -0.21371086 1
5.9614835 2.2105598 -0.2168047 1
6.2773147 -1.0221393 -0.21264298 1
5.7008147 2.7587178 -0.21452577 1
5.8049436 2.5088477 -0.21075781 0
6.3839278 -0.042256709 -0.2169946 0
6.0864706 1.8100361 -0.21300085 1
6.348906 0.7522189 -0.2197655 0
6.0252833 1.988162 -0.21265073 1
6.2314086 1.3503865 -0.21726282 1
6.3747368 -0.4001171 -0.21790166 0
6.0959582 1.8573221 -0.21838577 1
6.3564539 0.68920147 -0.21975227 0
6.1877308 1.4895914 -0.21508487 1
6.391305 -0.23268044 -0.2196786 0
6.3731642 0.2910535 -0.21611865 0
6.1153159 1.7088346 -0.21250363 1
6.3282733 0.72839963 -0.21439846 0
6.310925 -0.70941943 -0.20989712 0
6.1474271 1.6326245 -0.21470113 1
6.3717966 -0.44227135 -0.21790536 0
5.6052036 2.9211955 -0.21287973 0
5.8692751 2.353621 -0.20975395 1
6.2450018 1.2896007 -0.21724017 1
6.2788343 -0.91590542 -0.20904358 1
6.2415438 -1.0787232 -0.20684917 1
6.2845111 0.95503122 -0.21177252 0
5.6703844 2.766664 -0.20917483 1
6.273675 -0.93634498 -0.20860119 1
6.3885884 -0.29503152 -0.21968158 0
6.3622689 -0.27371669 -0.21342476 0
6.4104791 0.10389506 -0.22325464 0
5.8173823 2.5377507 -0.21613772 1
6.1512117 1.6118069 -0.2142448 1
6.216084 -1.180491 -0.20553739 0
6.2941856 0.89267957 -0.21175607 0
5.7481503 2.6202052 -0.20994969 1
5.7262287 2.6562083 -0.20908494 1
6.315115 -0.8574878 -0.21528633 0
6.3633504 -0.54544979 -0.21791656 0
6.3488584 -0.37732264 -0.21164401 0
6.3223948 -0.60502076 -0.20988126 0
6.3393726 -0.73405987 -0.21705039 0
6.375957 0.062178388 -0.21520968 0
6.3905072 0.3979193 -0.22149248 0
6.4078126 0.20778732 -0.22326095 0
6.3709879 0.62796992 -0.22152777 0
6.2700076 0.99525291 -0.20999642 0
6.0887375 1.8983206 -0.21974774 1
6.1391959 1.7379436 -0.21966513 1
5.5102463 3.082485 -0.21258219 1
5.5541081 2.9406962 -0.20486207 1
5.6691546 2.8360927 -0.21637674 1
6.2189698 1.262424 -0.21008201 1
6.262598 -1.1253836 -0.21356376 1
6.322474 0.93969834 -0.2198108 0
5.6231403 2.8353579 -0.20700105 1
6.3257942 -0.83768952 -0.21706958 0
6.3749967 0.12437765 -0.21521254 0
6.4123983 0.18670966 -0.22415312 0
5.9567695 2.2541363 -0.21951218 1
5.8993955 2.276356 -0.20925505 1
6.3278217 0.66474283 -0.21259828 1
6.3705764 -0.14752908 -0.21431406 0
6.2955704 -0.7699163 -0.20812042 1
6.2958465 -0.98253214 -0.21531399 1
6.3455405 0.83718348 -0.22157212 0
6.2057233 1.5598056 -0.22315617 1
6.4188323 -0.063739628 -0.22503777 0
6.4185424 -0.087097153 -0.22503777 0
6.3632755 0.25051603 -0.21343394 0
5.6273279 2.9093518 -0.21599407 1
5.8190889 2.5618193 -0.21883507 0
6.2892456 0.87282217 -0.20996363 0
5.792419 2.6181519 -0.21887811 1
6.0797219 1.785901 -0.20986171 1
6.3462911 0.85976028 -0.22247119 0
5.8280997 -2.3656588 -0.20207329 1
5.7690973 -2.4982111 -0.20216329 1
1.3464818 -1.4556657 0.76221007 3
2.4981937 -1.7802222 0.52647674 16
6.1601524 -1.5108111 -0.21011741 1
6.2104645 -1.2649451 -0.2082438 0
2.4982727 -2.0195775 0.49003962 19
1.3256979 -1.4581364 0.76442695 5
2.7369769 -1.3918463 0.53269249 33
2.6786759 -1.3910815 0.54429841 35
2.7754283 -1.3914415 0.52510452 27
1.4059086 -1.4538475 0.754655 4
6.0525212 -1.8268658 -0.20668073 1
2.4957528 -2.2874565 0.44685051 14
1.3324775 -1.4582283 0.76353782 5
1.3764219 -1.4560022 0.75820798 7
6.1818414 -1.4080092 -0.20918579 1
2.4991872 -2.1062124 0.47609594 18
2.4979248 -2.0484092 0.48554066 25
6.2041082 -1.2850308 -0.20780368 1
6.2009306 -1.3262362 -0.20915742 1
1.28644 -1.4655225 0.76796472 19
2.4984548 -1.7552502 0.53007591 16
6.0685458 -1.7890677 -0.2075562 1
1.2985414 -1.4622561 0.76708382 7
2.5014496 -1.9263524 0.5039897 23
5.9970975 -1.9861335 -0.20631476 1
6.1718702 -1.4487896 -0.20920058 1
2.4877241 -1.434781 0.57594252 1
5.84448 -2.327256 -0.20204838 1
2.4918494 -1.4808805 0.56920147 34
2.4983199 -1.9908459 0.49453816 20
6.1667776 -1.4691533 -0.20920821 1
6.0089803 -1.9459277 -0.20584686 1
2.4905608 -1.4689503 0.57099879 41
5.8150206 -2.4055157 -0.20299275 1
2.4992676 -2.3877876 0.42931196 13
6.0951324 -1.7083913 -0.20796604 1
2.4967759 -2.210762 0.45944783 15
2.498317 -2.2418802 0.45405206 15
2.4952118 -1.5507413 0.55931032 29
2.4974556 -1.507048 0.56471175 36
2.5009751 -1.7952248 0.52378201 20
5.9908299 -2.0039127 -0.20632418 1
5.7266493 -2.5704806 -0.20042868 1
5.7998724 -2.4445119 -0.20346554 1
1.4316374 -1.4565446 0.75064635 3
2.4890308 -1.5923462 0.55480236 52
1.4156278 -1.4563532 0.75287074 5
2.492672 -1.5375346 0.5615555 27
2.4964056 -2.0613294 0.48373887 19
6.0138927 -1.9254835 -0.20538969 1
2.7536528 -1.3902463 0.52956933 31
1.3707118 -1.4576834 0.75864893 9
2.4921815 -1.5145915 0.56470364 30
1.3973715 -1.4528642 0.75599128 3
1.3206017 -1.4615906 0.76441902 5
5.9856348 -2.0243011 -0.2067817 1
2.493367 -2.2682269 0.45044556 15
2.4978919 -1.4961624 0.56606191 38
2.5024307 -1.954484 0.49949285 23
5.7320633 -2.5499814 -0.19952102 1
2.4938242 -1.7640284 0.52961892 17
2.6935987 -1.3888186 0.54162234 36
2.4986002 -1.8435109 0.51703072 19
2.5048084 -1.8240995 0.51883972 23
2.5048211 -1.8632312 0.51299179 22
2.4936833 -2.332098 0.43964973 12
2.501014 -2.3730218 0.43156388 13
2.503722 -2.0959334 0.47700265 23
2.4904571 -1.7122693 0.53771073 17
2.4961448 -1.6316874 0.54806578 24
5.9800105 -2.0456603 -0.20723994 1
6.1491885 -1.5296433 -0.20878454 1
5.7141304 -2.5875967 -0.19954832 1
2.5032718 -2.1714497 0.46485606 21
5.8162317 -2.3832657 -0.20119186 1
2.494493 -1.960355 0.49993035 21
2.5013564 -2.4069171 0.42571643 13
2.4934475 -2.3482296 0.43695024 13
5.9728355 -2.0653534 -0.20725091 1
2.4964657 -1.9084594 0.50758076 24
1.2698766 -1.4622915 0.77063805 51
6.0371075 -1.8868686 -0.20760365 1
2.5012264 -1.7456188 0.53097975 20
6.0662985 -1.8092451 -0.20845909 1
6.1791344 -1.3857919 -0.20739086 1
2.5027988 -2.0089836 0.49094632 19
2.4918268 -2.2508283 0.45359221 16
6.1290913 -1.5894134 -0.20791514 1
1.4253778 -1.4588087 0.75108647 4
6.1957817 -1.3046613 -0.20691641 1
2.4955475 -2.0735083 0.48193827 25
2.5071261 -1.8903775 0.50849694 28
6.1710572 -1.4919153 -0.21145041 2
2.4926302 -2.0284545 0.48958108 18
2.5010962 -2.3091991 0.44236031 14
2.492502 -2.3145695 0.44279686 16
1.2749755 -1.4590143 0.77064598 35
2.5071537 -1.8784441 0.51029634 24
6.0405445 -1.8450119 -0.20534952 1
2.8088896 -1.3877066 0.51885831 31
2.7887568 -1.3877053 0.52287591 29
1.4426115 -1.460463 0.74841416 4
2.4946079 -2.1164842 0.47518918 22
2.5034111 -2.231518 0.4549596 14
1.2995741 -1.4522195 0.76888484 7
6.0954471 -1.6866361 -0.20661624 1
2.506671 -1.812766 0.52019215 20
6.2286954 -1.2258815 -0.21046562 1
2.4872339 -1.6974931 0.54040486 19
2.8663156 -1.3967488 0.50635147 31
2.4992878 -1.6947701 0.53862411 18
1.3877077 -1.450263 0.75777566 3
2.4977195 -1.5871193 0.5539161 40
2.5063348 -1.9443032 0.50039858 23
5.8529902 -2.2867143 -0.20023616 1
6.1496592 -1.5732495 -0.21148236 1
5.8615632 -2.3117692 -0.20427127 1
2.4921653 -2.1907041 0.46348932 18
2.4842272 -1.6345081 0.54984677 23
2.4946475 -1.8928156 0.51027703 24
2.499032 -1.6824193 0.54042304 19
6.1366553 -1.6132846 -0.21105213 1
2.4890351 -1.7234372 0.53635907 16
2.4828656 -1.6459328 0.54849517 21
2.4989052 -1.4635966 0.57011199 31
5.7866569 -2.4832656 -0.20438536 1
2.4971743 -1.6688991 0.54266936 21
5.8137193 -2.4277887 -0.20479389 1
2.4919562 -1.9718266 0.49857691 21
2.7085328 -1.3864696 0.53894639 34
2.4946005 -1.8271358 0.52017343 22
1.2710407 -1.47542 0.7679407 61
6.2038651 -1.3484505 -0.210952 1
6.0822067 -1.7713407 -0.20933481 1
2.8443871 -1.3961074 0.51081604 32
2.4843814 -1.611654 0.55299586 22
2.4915607 -2.1748562 0.46618751 24
1.2977043 -1.4721365 0.76528311 9
2.6687858 -1.3962573 0.54563266 37
2.5074441 -2.1589839 0.46621212 23
2.5008466 -1.5662669 0.55617011 28
6.1103492 -1.6277093 -0.20614429 1
2.8745968 -1.3897707 0.50546455 28
5.8470812 -2.3510613 -0.2047431 1
6.1271257 -1.6542823 -0.2115161 1
6.028511 -1.8630995 -0.20401831 1
6.0779309 -1.7251247 -0.20529325 1
6.0138497 -1.9011883 -0.20359071 1
2.5016699 -1.57841 0.55437201 27
2.485291 -1.5209894 0.56514275 27
2.4764559 -1.4165071 0.58042341 2
2.5080278 -2.144541 0.46846226 20
6.1882544 -1.4311826 -0.21187456 1
1.3616295 -1.4664836 0.75818497 2
2.8948555 -1.389257 0.50144714 26
6.1626492 -1.5549543 -0.21326192 1
1.3024666 -1.4456011 0.76978904 6
1.3309164 -1.4451091 0.76623452 5
6.0950999 -1.6669018 -0.2052675 1
1.3701168 -1.4676616 0.75684857 6
6.0187292 -1.9714705 -0.20988019 6
1.374652 -1.4428715 0.76090431 4
5.7727246 -2.5229042 -0.20530625 1
2.4774811 -1.5948311 0.55658394 42
5.7621179 -2.5410445 -0.20487256 1
2.9151402 -1.388621 0.49742988 31
6.2358236 -1.2488658 -0.21315332 1
6.1687489 -1.3618383 -0.20380838 1
2.508857 -1.4592884 0.56877774 9
5.7668595 -2.4513962 -0.19721873 1
6.1054463 -1.7553676 -0.21334763 1
0.01653346 -1.4527099 0.82625717 51
1.0198261 -1.4689726 0.79678977 27
0.43809801 -1.4695393 0.83006883 40
0.14706461 -1.4515834 0.83186096 62
0.2446426 -1.449095 0.83471352 69
0.65687412 -1.4632921 0.82456356 13
0.65176398 -1.4644119 0.82455552 13
-0.099262185 -1.461167 0.81752729 47
0.63522816 -1.4619383 0.82587922 20
1.1308135 -1.4719552 0.78481674 30
0.42758602 -1.4663438 0.83095205 12
0.1767254 -1.4648857 0.82965827 55
1.0496392 -1.4655269 0.79458702 8
0.55734408 -1.4660132 0.82800651 6
0.69021297 -1.4675616 0.82191658 5
0.32535741 -1.4634881 0.83214116 61
0.64624268 -1.4636079 0.82499677 16
1.0368589 -1.4652199 0.79591662 9
-0.0089665102 -1.4489124 0.8257671 16
-0.084470637 -1.4674935 0.81710076 35
0.66197968 -1.4621546 0.82457155 15
-0.014476244 -1.4496028 0.82530856 14
1.1098908 -1.4698836 0.78748322 9
0.40696511 -1.4597162 0.83271915 53
0.82298905 -1.4678615 0.81357694 3
0.81786275 -1.469561 0.81356889 3
0.2541495 -1.4515985 0.83427864 79
0.92663419 -1.4649414 0.80609125 9
0.54117554 -1.4644539 0.82888085 11
1.1599594 -1.4647504 0.78306276 7
0.23388988 -1.4503487 0.83424675 71
-0.049950872 -1.4607794 0.82075411 7
0.3099404 -1.4691676 0.83076739 57
0.26460937 -1.4560344 0.83339536 83
1.1359471 -1.4691633 0.78482473 40
1.0419687 -1.4627562 0.7959246 8
0.5681904 -1.4682634 0.82712376 26
0.8344841 -1.4680979 0.81269515 12
1.0317396 -1.4676659 0.79590863 9
0.42234796 -1.4647181 0.83139372 12
0.79949063 -1.4652666 0.81578946 11
0.046157297 -1.464817 0.82495421 55
1.1791562 -1.4627656 0.78129321 4
0.86466467 -1.4719633 0.80959332 33
0.14225312 -1.4489918 0.83230323 100
0.44322741 -1.4691653 0.83007687 44
-0.11339477 -1.4528292 0.81840479 32
0.94569695 -1.4676433 0.80387175 3
1.0951173 -1.4666195 0.78970951 3
1.0547509 -1.4630184 0.794595 8
0.52071667 -1.4652445 0.82929868 40
0.26960763 -1.4582131 0.83295333 96
0.6841805 -1.4650071 0.82280684 4
0.16136608 -1.4611981 0.83008397 12
0.85242772 -1.4701223 0.81092381 25
1.0666955 -1.4614322 0.79371387 8
0.011885936 -1.4496919 0.82669967 82
0.11670598 -1.4473599 0.83181316 50
0.58004272 -1.4762003 0.82489306 43
0.85755658 -1.4683019 0.8109318 37
0.53525937 -1.4593786 0.83022118 21
0.23882705 -1.4526322 0.83380467 68
0.49979982 -1.4638426 0.83016562 65
0.48932061 -1.4649948 0.83014917 100
0.7946294 -1.4668034 0.81578189 11
0.12736474 -1.4449799 0.8327297 50
-0.0050424081 -1.453836 0.82487357 15
0.78950614 -1.4684039 0.8157739 11
-0.061912779 -1.4656609 0.81893581 12
0.39634842 -1.4563103 0.83360225 87
-0.10491917 -1.4615139 0.81706852 22
0.63992858 -1.458969 0.82633644 17
0.29435194 -1.4668852 0.83119273 10
0.67394358 -1.4674195 0.8227908 11
0.67816877 -1.4624286 0.82369715 7
0.19137488 -1.4683377 0.82923144 46
1.0633261 -1.4674723 0.79280895 9
0.9413144 -1.4715724 0.80341506 6
0.1057026 -1.4515864 0.8304463 57
0.7025637 -1.474552 0.81968659 18
0.49507442 -1.4702532 0.82880861 100
0.96795869 -1.4772687 0.7998578 9
0.52990353 -1.4581425 0.83066267 29
-0.11788449 -1.4493996 0.81884754 51
0.13745746 -1.446384 0.83274555 54
0.083342053 -1.4637177 0.82681221 6
0.97669214 -1.4692334 0.80077118 13
0.57488793 -1.4770517 0.82488501 37
0.91861397 -1.4597673 0.8078782 9
0.28923181 -1.4667394 0.83118469 11
0.45843971 -1.4659944 0.83055061 61
1.1398739 -1.4647874 0.7852807 32
0.89817613 -1.4677933 0.80784625 12
0.066637211 -1.4686867 0.82498646 27
0.36583659 -1.4573065 0.83355433 100
0.78437799 -1.4699866 0.81576586 11
0.82748681 -1.4642977 0.81403381 8
0.38596669 -1.4508711 0.83493549 100
0.63128722 -1.4687121 0.82452345 17
0.33045888 -1.4674052 0.83124948 51
0.077565633 -1.4666749 0.82590336 8
0.25941479 -1.4479743 0.8351866 64
0.98181647 -1.4669797 0.80077916 14
0.71479619 -1.4794885 0.81790632 27
0.80970871 -1.4619778 0.81580549 7
0.93543595 -1.4718809 0.80385572 8
0.22947295 -1.448085 0.83468968 100
0.31992388 -1.471243 0.83033317 61
0.87800556 -1.4608431 0.81096375 38
0.032157984 -1.4540417 0.82673162 15
0.36056361 -1.4476683 0.83579534 100
0.87180543 -1.4755927 0.8082549 23
0.15142415 -1.4599923 0.83006835 29
0.27500948 -1.4506387 0.83476126 72
-0.09306667 -1.4589281 0.8184368 47
0.13267767 -1.4437606 0.83318788 43
0.0017731445 -1.4474112 0.82668376 20
0.37591693 -1.4453506 0.83626932 100
0.50422537 -1.4574467 0.83152217 58
-0.021377448 -1.4559525 0.82349825 14
0.11077092 -1.4523729 0.83045429 48
0.17246687 -1.4565816 0.83145106 53
1.0843461 -1.4721622 0.7896927 3
0.20188558 -1.4693174 0.82924795 29
0.50882405 -1.4549378 0.83197922 47
0.99328953 -1.4789459 0.79719818 22
0.16734992 -1.4540454 0.83189285 25
0.34044722 -1.467392 0.83126515 21
0.071765505 -1.4696095 0.8249945 12
0.28007346 -1.450834 0.83476919 39
0.40124819 -1.4521891 0.83450961 75
0.21256234 -1.4682797 0.8297146 10
1.0993278 -1.4622259 0.7901659 7
0.019973811 -1.4614292 0.82446313 29
0.44937569 -1.4784673 0.82783723 50
0.91135722 -1.4563661 0.80921644 10
0.55107337 -1.4590756 0.82979614 5
0.15628779 -1.4625536 0.82962614 12
0.88819087 -1.4570065 0.81097966 20
0.39165437 -1.4662567 0.83134556 100
0.66577864 -1.4552995 0.82592708 12
0.34543547 -1.4517696 0.83487189 25
0.59075463 -1.4783281 0.82401013 57
0.43230623 -1.4601738 0.83230907 26
0.46476632 -1.4791373 0.82741147 54
0.96279782 -1.4794742 0.79984975 6
0.25014862 -1.4416145 0.83652163 67
0.54769158 -1.4733624 0.8266418 6
0.51390201 -1.4543171 0.8319872 40
0.12316591 -1.4384669 0.83407265 52
0.097023092 -1.4442742 0.83178222 61
0.90484351 -1.4547466 0.81010598 10
0.049433257 -1.4753792 0.8227101 50
1.0000498 -1.4801879 0.79630899 33
0.90541661 -1.4712625 0.80650795 10
1.0291076 -1.4753819 0.79455495 11
0.29973966 -1.4553237 0.83390039 36
0.87830234 -1.4773619 0.80736536 23
0.042316373 -1.4561101 0.8267476 57
0.35547948 -1.4458055 0.83623725 75
1.0060194 -1.4796267 0.79586846 19
0.58296871 -1.4638484 0.82759678 45
1.0038619 -1.4613285 0.79991382 21
0.1021779 -1.4411618 0.83269006 55
0.19614054 -1.4727056 0.82833922 46
-0.02832723 -1.4622715 0.82168788 17
0.41279757 -1.4730724 0.82957929 26
0.71010953 -1.482699 0.81744909 21
1.0695227 -1.4556437 0.79461801 7
0.47831631 -1.4582897 0.83193135 12
1.1602468 -1.4533873 0.78531247 3
1.0846375 -1.4588729 0.79239231 2
-0.086892106 -1.4566637 0.81934625 37
0.6934638 -1.4587395 0.82372111 8
0.45309812 -1.4605737 0.83189183 48
0.30507389 -1.4554378 0.8339088 50
0.18233134 -1.4556794 0.83191639 48
0.47553486 -1.4801002 0.8269785 16
0.52684814 -1.4723108 0.82750887 36
0.024274077 -1.4663286 0.82357019 17
1.153499 -1.4772995 0.78125322 26
1.1586511 -1.4744283 0.78126127 12
-0.07577578 -1.4760095 0.8157649 28
-0.035162393 -1.4464908 0.82482612 12
0.94854379 -1.4601102 0.80522579 2
0.61840397 -1.4573671 0.82765234 60
-0.058795843 -1.4745654 0.81714123 8
0.31469223 -1.4789809 0.82852548 61
0.60738206 -1.4832665 0.82223672 12
0.56095278 -1.455596 0.83026147 13
0.038011637 -1.4512658 0.82764053 49
0.20668238 -1.4736511 0.82835579 13
0.97776645 -1.485773 0.79717398 10
0.21951863 -1.4453804 0.8351239 15
0.77358788 -1.4529005 0.82024759 12
-0.070621051 -1.4774294 0.81577307 20
-0.082505383 -1.4801998 0.81440473 35
0.41801798 -1.4786383 0.82823789 12
0.33533701 -1.4752023 0.8294577 25
0.84597039 -1.4847617 0.80821449 16
1.1302848 -1.4833127 0.78256661 9
0.0089677526 -1.4390554 0.82894439 27
0.88035136 -1.4516388 0.81276685 40
0.38076696 -1.4393506 0.83762652 100
0.80041814 -1.4506459 0.81893998 10
0.85243618 -1.4866437 0.80732489 20
0.59753871 -1.4850501 0.82222128 49
-0.040461514 -1.4451298 0.82481778 10
0.058869328 -1.4791471 0.8222751 43
1.1241851 -1.4843649 0.78300697 11
0.37117583 -1.4669253 0.83131337 100
-0.11341286 -1.4711618 0.81435597 21
0.28378761 -1.4763142 0.82892686 20
0.6288268 -1.483121 0.8213706 32
-0.02774084 -1.4383188 0.8270871 13
0.22514759 -1.4379965 0.83693218 51
0.47108728 -1.4883488 0.82517207 33
0.052622523 -1.4839236 0.82091564 50
1.005681 -1.4519062 0.80171615 30
0.35033891 -1.4380788 0.83802861 32
0.18450563 -1.4852836 0.82517189 53
-0.1188441 -1.4348052 0.82199508 29
1.1614345 -1.4437308 0.78711373 3
0.60641748 -1.4497448 0.82988286 13
0.60481137 -1.4956243 0.81953353 27
0.093908645 -1.4319078 0.83447647 11
0.61074102 -1.4449556 0.83078933 40
-0.35463953 -1.4572749 0.7968806 23
-0.50130796 -1.4531462 0.78180337 44
-0.21956301 -1.4638263 0.80789047 26
-0.39946234 -1.4461813 0.79456043 12
-0.34363014 -1.4602761 0.79734784 16
-0.64956689 -1.4429499 0.76537383 28
-0.79347366 -1.4390522 0.74625188 7
-1.9922807 -1.4986283 0.52751738 23
-0.71457821 -1.4496764 0.75537401 3
-1.9909327 -1.4863003 0.52931887 23
-0.9095791 -1.4367983 0.72942311 7
-2.145705 -2.006737 0.42965797 25
-0.41132545 -1.4444926 0.79364198 9
-0.82567841 -1.4383471 0.74170226 4
-0.85033017 -1.438369 0.73806435 3
-2.0104859 -1.3645285 0.54008329 28
-2.1474948 -1.9228889 0.44135091 39
-0.80712718 -1.4357256 0.74488068 5
-0.61301035 -1.4532605 0.7681309 9
-1.9887803 -1.4385111 0.53561985 23
-0.81578285 -1.4362991 0.74351734 4
-2.1533673 -2.3156881 0.38151267 21
-2.0057082 -1.3727038 0.54009098 28
-0.42772353 -1.4513369 0.79046708 10
-0.30429858 -1.454507 0.80235839 9
-0.55958283 -1.4479185 0.77586299 10
-2.1528146 -1.3334459 0.51466465 12
-1.9971409 -1.5830827 0.51581401 20
-0.76855415 -1.4484459 0.7480908 48
-0.23969299 -1.4560608 0.80785871 21
-0.54943991 -1.4427171 0.77812833 9
-0.36055988 -1.4566228 0.79642135 43
-0.5656597 -1.4464469 0.77540356 9
-2.1478179 -1.9792202 0.43325332 21
-0.22811288 -1.4563909 0.80877674 40
-0.20637381 -1.4604355 0.80971074 23
-0.7747882 -1.4461366 0.74763107 50
-0.19993538 -1.4586511 0.81062061 16
-0.93358523 -1.4339219 0.72623605 8
-0.87435251 -1.4361215 0.73487723 9
-0.63440275 -1.4531666 0.76539785 36
-0.27661103 -1.4452107 0.80690068 12
-0.18228787 -1.4567195 0.81244791 7
-0.21445 -1.4657481 0.80789858 23
-0.23460692 -1.4580529 0.80786675 31
-0.1348322 -1.4501563 0.81747121 12
-0.15246269 -1.452564 0.81564403 21
-0.66404784 -1.4424617 0.76355147 6
-2.0028539 -1.5989131 0.51265609 22
-0.37241173 -1.4552479 0.7955029 23
-0.44606382 -1.4504219 0.78863859 5
-1.9976325 -1.5473988 0.52031153 24
-1.9969647 -1.5236197 0.52346152 22
-0.31252456 -1.4593993 0.80054593 7
-2.1361506 -1.3356304 0.51784021 12
-2.1495924 -2.2968416 0.38511744 14
-0.76089042 -1.4493657 0.7490027 34
-1.9932816 -1.4200289 0.53696221 22
-0.70269769 -1.4438277 0.75809199 6
-0.31894863 -1.4608073 0.79963613 7
-0.62184352 -1.4567974 0.76631743 10
-1.994462 -1.4771318 0.52976304 21
-1.9916739 -1.5563402 0.52032107 22
-0.28241545 -1.4448645 0.80644166 12
-2.1601889 -2.3879271 0.36890623 28
-2.1606505 -2.4211364 0.36350736 19
-0.52648371 -1.4497273 0.77951419 10
-2.1600389 -2.3711493 0.37160555 34
-2.1092401 -1.3321178 0.52373105 12
-0.38537133 -1.4445375 0.79638213 20
-2.1459205 -1.9502345 0.43775472 45
-0.41726166 -1.4436125 0.79318273 8
-0.43187445 -1.4469479 0.79091036 9
-0.16002637 -1.4582421 0.81383264 22
-0.48077607 -1.4535949 0.78408515 13
-2.1515243 -1.9964139 0.43009856 21
-0.40273321 -1.4401435 0.79545498 11
-0.53934455 -1.4374623 0.7803936 9
-0.29636759 -1.4494654 0.80417037 11
-2.1496911 -1.897671 0.4444963 25
-2.1580584 -2.3363523 0.37745669 33
-0.37406313 -1.4457735 0.79729974 32
-0.4743126 -1.4527402 0.78499508 12
-0.27381551 -1.4527256 0.80555558 13
-0.73504263 -1.4564636 0.75129294 4
-0.78485686 -1.4383628 0.7476151 12
-0.69225222 -1.4393219 0.7603578 7
-0.24766654 -1.4465983 0.80919576 45
-0.26799619 -1.4530363 0.8060146 13
-0.60898924 -1.4581925 0.76768738 9
-1.9997663 -1.5371066 0.52120781 24
-1.9946585 -1.4658808 0.53111219 23
-2.1438386 -1.9339375 0.44045708 32
-1.9875612 -1.5059292 0.52752495 24
-0.51549143 -1.4426441 0.78223079 28
-0.14397416 -1.4430673 0.81835657 21
-0.67384309 -1.4356372 0.76353598 3
-0.63014394 -1.4583306 0.76495475 15
-0.83667451 -1.4319311 0.74123496 3
-0.3334192 -1.4649683 0.797364 12
-2.1518383 -2.3966198 0.36891952 24
-0.79607755 -1.432049 0.74714744 6
-0.66548634 -1.434348 0.76489878 5
-0.64164025 -1.4530149 0.76448667 43
-0.39652508 -1.45421 0.79321551 12
-2.1477442 -2.0227683 0.42695573 37
-0.28822494 -1.4444956 0.80598265 12
-0.22649652 -1.4674459 0.80652994 31
-0.47393918 -1.4640836 0.78274637 12
-0.53353781 -1.4500611 0.77860337 9
-1.9898589 -1.3842019 0.54191577 27
-0.34624732 -1.4526083 0.7986933 19
-0.89825422 -1.4439604 0.72989088 9
-2.1621697 -2.2132931 0.39589366 30
-2.1898651 -1.3301537 0.5074079 12
-1.9851382 -1.4034181 0.54057389 21
-0.25198048 -1.4427549 0.8096388 29
-0.50221938 -1.4436237 0.78360134 38
-1.9816737 -1.4240608 0.53878009 22
-1.9929996 -1.3750902 0.54236054 29
-0.14316931 -1.4576908 0.81520879 15
-0.16763574 -1.4638852 0.8120212 20
-0.34096771 -1.4679434 0.79600245 16
-0.327245 -1.4656268 0.79782361 11
-0.9120279 -1.4295113 0.7303189 7
-0.24765015 -1.4612939 0.80604672 30
-0.6390692 -1.4383019 0.76763976 31
-2.1558945 -1.9721891 0.43279055 28
-0.908364 -1.4455638 0.72807544 9
-1.9878421 -1.5655383 0.51987743 23
-0.91957945 -1.4280837 0.72940719 7
-0.77625877 -1.4376308 0.74897832 38
-1.9804404 -1.4445466 0.53653288 23
-0.87432617 -1.4463123 0.73307782 13
-2.0433524 -1.338485 0.53643191 18
-0.7470656 -1.462127 0.74857473 6
-2.0562806 -1.3353461 0.53416204 17
-2.030196 -1.3419652 0.53870219 21
-2.0182641 -1.3471594 0.54052067 26
-2.0857983 -1.3303113 0.5287168 12
-2.1640515 -2.3584151 0.37294868 46
-0.59643954 -1.4616122 0.76860696 6
-0.56735027 -1.4385023 0.77675039 9
-2.1475186 -2.2471614 0.39321795 23
-0.3707028 -1.4647286 0.79370618 33
-0.64908665 -1.431476 0.7676239 8
-2.1554015 -1.9158374 0.44088843 45
-0.87684017 -1.4289219 0.73577297 9
-0.52954662 -1.4320042 0.7826584 9
-2.1628454 -1.3270659 0.51329905 11
-2.1432476 -2.274977 0.389626 16
-2.1547482 -1.8878115 0.44493803 24
-2.0677431 -1.330772 0.5323444 11
-1.981673 -1.3902987 0.5428285 22
-0.37651908 -1.4380523 0.79864544 40
-2.0067997 -1.3514644 0.54233837 25
-0.50529015 -1.437331 0.78449619 44
-2.1439774 -2.2597499 0.3918741 21
-2.1515226 -2.2193978 0.39681032 28
-1.994051 -1.6048487 0.51356983 21
-0.47069269 -1.4703126 0.78185183 11
-2.1317577 -1.8568395 0.45352164 25
-0.50298011 -1.4679034 0.77865171 37
-0.20013875 -1.4751644 0.80702144 12
-0.75797826 -1.4661609 0.74630821 9
-0.73224527 -1.4633354 0.75039768 5
-0.82332689 -1.4252135 0.74440509 3
-0.49733764 -1.4711047 0.77866066 22
-0.46369845 -1.4696856 0.78276259 9
-0.16509908 -1.4400291 0.81742352 13
-0.17076606 -1.4401189 0.81696469 9
-0.43183649 -1.4359376 0.79315966 9
-0.76750737 -1.4687696 0.74449366 12
-0.87175697 -1.4535201 0.7321822 7
-2.1437602 -2.2280612 0.39682272 24
-0.57132649 -1.4337004 0.77719396 6
-0.19564211 -1.4788533 0.80657864 9
-0.25258237 -1.4298835 0.81233698 13
-0.67372388 -1.423804 0.7657854 6
-0.61204809 -1.4747612 0.76408368 8
-2.4822247 1.281611 0.56412196 35
-2.4696479 1.6069455 0.5374217 68
-2.4710658 2.6453638 0.41604343 52
-2.3449135 2.0749989 0.50707853 57
-2.469969 1.4927536 0.54810888 66
-2.4723675 1.4329711 0.55306739 70
-2.3520114 1.9208634 0.52386171 68
-2.4697549 1.542628 0.54352874 68
-2.4682798 1.5815611 0.54009575 62
-2.3466127 2.0177941 0.51356453 64
-2.4682515 1.6328968 0.53513366 68
-2.4709601 2.7193191 0.40611997 51
-2.4674571 1.7922941 0.51910365 68
-2.4779983 1.3508722 0.55916613 72
-2.1439316 5.3059368 0.027633352 12
-1.8308613 5.3926053 0.036900327 7
-2.4657981 3.6691353 0.26834431 49
-2.2745318 5.2495213 0.026284499 25
-2.4609036 4.2427359 0.17789666 52
-2.4567592 4.7219219 0.099279806 52
-2.4680316 2.5533619 0.42864349 50
-2.4693065 2.8738759 0.38513044 50
-2.4677851 1.5543103 0.54276836 66
-2.4691632 1.7380276 0.52444476 66
-2.3449383 2.0459924 0.5105136 62
-2.4561515 4.6834774 0.1057692 54
-2.3486333 1.9756415 0.51814169 62
-2.3430421 2.1187778 0.50211954 56
-2.4616184 4.375649 0.15614061 48
-2.4699566 1.4802066 0.549254 70
-2.4731624 1.3965101 0.55611986 72
-2.4620903 4.1806898 0.18781821 49
-2.0851018 5.3222451 0.029633446 8
-2.3433025 2.1342287 0.50021064 57
-2.4681854 1.6446737 0.53398865 72
-2.3442445 2.0306976 0.51242316 60
-2.4675291 1.7107214 0.52750081 68
-2.4682002 1.5043888 0.54734814 66
-2.4756086 1.3376726 0.56069666 72
-2.4563191 4.64678 0.11187558 54
-2.4606292 4.5453887 0.12828045 50
-1.9435933 5.3544874 0.03519766 5
-2.4600751 4.5802565 0.12255637 49
-2.4713423 1.4435773 0.55230552 70
-2.4627059 4.0306334 0.21186219 55
-2.4645691 3.9429929 0.22559939 54
-2.4756019 1.4222797 0.55344409 74
-2.4551487 4.7570391 0.093557402 54
-2.4666297 3.6437733 0.27215973 47
-2.3390374 2.1925685 0.49372861 56
-2.4687259 1.7793477 0.5202468 70
-1.9630435 5.3483057 0.034785673 6
-2.4728994 2.7594807 0.40039185 49
-2.4726853 2.7400651 0.40306386 51
-2.459877 4.3394527 0.16224997 48
-2.4657288 2.5325377 0.4317005 50
-2.238739 5.2671609 0.026340408 17
-2.4667692 1.6968632 0.52902871 68
-2.4848921 1.2709658 0.56449962 26
-2.4712198 2.5905373 0.42329511 49
-2.4590302 4.4724793 0.1404963 52
-2.4633532 3.8835337 0.23514293 52
-2.4669769 2.79336 0.39658424 50
-2.4785635 1.3632486 0.55802011 74
-2.1817553 5.2902765 0.027192516 16
-2.343488 2.1497066 0.49830195 56
-2.4712908 2.956404 0.3732954 48
-2.4645057 4.0604153 0.20689772 49
-2.4707463 2.9352379 0.37634966 48
-2.4659655 3.7501683 0.25574896 52
-2.4647441 1.7488424 0.52406985 70
-2.3516593 1.9348181 0.52233553 66
-2.46977 1.4551697 0.55154455 62
-2.4691248 2.6986187 0.40917626 52
-2.4529464 4.8694792 0.074859187 50
-2.4652214 1.5669748 0.54200888 66
-2.4589639 4.2721853 0.17331968 52
-2.3407476 2.0867534 0.50632155 58
-2.4602885 4.0847435 0.20346926 49
-2.0430908 5.3282514 0.031988904 7
-2.4620085 4.5122409 0.13362162 52
-2.4733994 1.5318912 0.54390484 64
-1.9233651 5.3587894 0.035992548 5
-2.4612043 3.5859156 0.28170988 48
-2.3375449 2.1757858 0.496021 56
-2.4625123 3.6122415 0.27750954 47
-2.4619348 3.8263574 0.24430518 51
-2.1616011 5.2954764 0.027987404 14
-2.3490283 2.063242 0.50783551 60
-2.4587691 3.995101 0.21797507 56
-2.4681306 2.6798093 0.41184953 51
-2.4707379 1.383719 0.55765039 70
-2.3504961 2.006074 0.51432192 64
-2.4735343 1.5961784 0.53779739 64
-2.472527 2.7794216 0.39772072 51
-2.0058358 5.3447218 0.032047078 7
-2.4636042 1.7617399 0.52292645 68
-1.8890848 5.3794789 0.034901068 6
-2.4702616 1.3713328 0.55879629 76
-2.473491 1.6742522 0.53016353 72
-2.4768445 1.471321 0.5488618 66
-2.4735417 1.7272035 0.52481967 70
-2.4672439 3.7246811 0.25956365 52
-2.4614115 2.5109425 0.43514231 51
-2.3453708 2.2126722 0.49028364 57
-2.4603739 3.5591497 0.28590956 49
-2.4682937 3.8070879 0.24658529 51
-2.4642653 1.682019 0.53094113 72
-2.4649212 1.5146072 0.5469715 64
-1.8463173 5.3821359 0.037639424 7
-2.335968 2.1590395 0.49831358 56
-2.3380771 2.0997159 0.50518066 56
-2.4731612 1.324506 0.56222725 72
-2.0220973 5.3311324 0.033166811 7
-2.1262183 5.3163395 0.027279181 14
-2.4644592 2.8291111 0.39200804 47
-2.4659586 2.6221364 0.41986814 52
-2.4580221 4.1432271 0.1943128 47
-2.4735615 2.576401 0.42481819 54
-2.4542322 4.6067781 0.11874883 49
-2.4648442 4.2165961 0.18170725 50
-2.4638574 2.8873866 0.38399377 48
-2.4641902 4.4135685 0.14964823 50
-1.865093 5.3744898 0.037610099 7
-2.4521348 4.8269258 0.082111999 49
-2.4568498 4.3016748 0.16874294 49
-2.4698775 3.7815113 0.25039956 51
-2.47382 2.8584704 0.38665006 49
-2.4582629 4.9567575 0.059584424 52
-2.2597115 5.2634287 0.02516262 20
-1.9040704 5.3626246 0.036786005 5
-2.463238 2.8081973 0.39506337 49
-1.9871635 5.35286 0.032076284 7
-2.341713 1.9418745 0.52311414 68
-2.4620404 1.6162275 0.53781503 72
-2.4570363 4.1107149 0.19965766 48
-2.3543296 1.9943514 0.51507944 62
-2.4575689 3.9623694 0.22332029 54
-2.463598 2.6016507 0.4229252 51
-2.4884343 1.29635 0.56182224 46
-2.4823034 1.4133443 0.55305219 70
-2.0608697 5.3181286 0.032342836 7
-2.489234 1.3086709 0.56067586 60
-2.4558108 4.4327941 0.14737122 52
-2.3293602 5.22191 0.026199026 116
-2.461926 2.9056234 0.38170674 48
-2.1085758 5.3244705 0.027306719 10
-2.3396702 1.954679 0.52197236 64
-2.4591823 4.9201536 0.065689608 50
-2.4703252 3.9220204 0.22826211 56
-2.4793179 1.6644418 0.53015459 70
-2.3474984 1.9035208 0.52654046 64
-2.4686496 1.3110309 0.56414264 68
-2.4566274 3.8472192 0.2416418 49
-2.2245452 5.2871614 0.024072452 18
-2.4553432 3.6820171 0.26759723 49
-2.448241 4.7815356 0.090133235 50
-2.4831603 2.6754186 0.41029957 54
-2.2077713 5.299603 0.02333538 19
-1.8185458 5.4165511 0.033484623 9
-2.344501 1.8873639 0.52883524 64
-2.2840469 5.2228317 0.030086203 56
-2.350745 1.8784711 0.52882564 66
-2.3022611 5.2136588 0.030057831 104
0.25367457 1.12802 0.95003998 100
-0.6370346 5.1030765 0.15860932 79
-0.58235556 5.1012168 0.16098492 79
2.514421 2.8332512 0.47844025 10
2.5152774 2.677295 0.50210512 15
-0.56386322 5.1005197 0.1617773 77
2.5132689 2.1097095 0.58377993 19
2.5122931 2.2930636 0.55858785 22
2.5163975 2.640815 0.50745028 11
-0.97403151 4.8363032 0.19395773 35
2.5136542 2.2618666 0.56278849 22
-1.0451274 4.8369207 0.1900299 32
1.6789685 3.0609641 0.52215451 47
1.6949574 3.0409863 0.52446985 47
0.3286787 1.0208778 0.97153062 100
2.5118246 2.0083106 0.59751809 20
2.5157509 2.4103587 0.54141802 15
2.5135398 2.0952868 0.58568877 22
2.516876 2.4620769 0.53378636 16
2.5135992 2.7916534 0.48492727 11
2.5145552 1.9703672 0.60210258 20
1.7023282 3.0290611 0.52600807 47
2.5157361 2.1268971 0.58111215 19
2.5156646 2.2325532 0.56660843 22
2.5135221 2.7517457 0.49103388 12
2.5133307 2.6940508 0.49981198 19
1.7293112 3.0059068 0.52795905 48
2.5162122 2.3940227 0.5437088 15
2.5165558 2.2179279 0.56851822 22
-0.54672116 5.1074944 0.16104071 79
1.6880519 3.0526617 0.52293223 46
2.5105937 2.2429733 0.56583697 24
-0.61921668 5.1064363 0.15863733 77
-1.0097525 4.8407593 0.19123022 28
2.510062 1.9253085 0.60858393 24
2.5105579 2.0212448 0.59598935 20
2.515924 1.998045 0.59828794 22
2.5138888 2.4252605 0.53950667 14
2.5111017 2.1372507 0.5803414 19
2.5078361 1.8831336 0.61430562 22
2.5186727 2.7200093 0.49524036 17
-1.0813587 4.8325763 0.18882822 37
2.5165341 2.8982728 0.46813849 10
2.5170732 1.9851326 0.5998165 20
2.5131705 2.5640986 0.51927698 12
2.5113175 2.9315972 0.46355012 9
1.7091066 3.0173612 0.52754545 49
2.5091939 1.9381171 0.60705584 22
2.5130732 2.5821929 0.51660514 12
-1.0287662 4.8435974 0.18967377 29
2.5207584 2.5369267 0.52234244 15
-1.1009924 4.8431625 0.18574415 41
2.5181134 2.1887391 0.57233745 22
2.5194404 2.7395167 0.49218825 13
2.5128767 2.6003172 0.51393312 11
2.5121503 2.6544874 0.50591689 12
-1.0628464 4.831831 0.19000219 35
2.5178423 2.0565801 0.5902757 18
2.5205879 2.5189002 0.5250138 13
2.5205762 2.6271453 0.50898361 12
2.5095901 2.1499786 0.5788123 19
2.5082626 1.9509432 0.60552764 22
2.5181372 2.0705643 0.58836782 14
2.50844 1.8704127 0.61583328 34
2.5090437 2.3365514 0.55285758 15
2.5181656 2.921597 0.46432438 10
0.25748202 1.1302502 0.94966429 93
2.5195403 2.3643126 0.54753083 15
2.52284 2.4515138 0.53455919 16
2.5201373 2.2061119 0.56966895 25
-0.59944981 5.0941229 0.16172151 79
0.2620478 1.1207117 0.95157975 82
2.512162 2.4741025 0.53263384 14
2.5077925 2.0328531 0.59483993 19
-0.98818403 4.8283811 0.1946988 32
1.7229148 3.0196772 0.52604061 49
2.5066345 2.0741093 0.58949459 21
2.5221069 2.5564768 0.51929116 12
2.5112679 2.4905596 0.53034246 14
2.5189269 2.2840273 0.55898005 21
2.5076416 2.1630991 0.57728255 17
2.5205705 2.3820522 0.54486078 17
2.5080955 2.8455253 0.47728518 10
2.516382 1.9032357 0.61050242 23
2.5076456 2.8656099 0.47423109 10
2.50876 2.7655094 0.4894996 11
1.6494145 3.1398795 0.51027632 3
-0.95562583 4.8351507 0.19513147 35
2.5089824 1.8577099 0.61736095 18
1.6685241 3.0676732 0.52175641 48
-0.30499882 5.0483856 0.17973928 50
2.504276 2.300653 0.55857509 17
2.5230949 2.8240712 0.47883561 11
-1.1218371 4.851285 0.18303995 42
1.6477996 3.1086054 0.51599872 4
2.5230069 1.9225013 0.60707784 24
-0.65596324 5.1054354 0.15743475 74
-0.93839544 4.8417454 0.19477676 35
2.5002596 2.3125136 0.55742371 15
-0.32337493 5.0519629 0.17856549 47
1.6578077 3.0723131 0.52173948 44
1.7606062 2.767642 0.5669381 30
7.5368686 0.14705533 -0.2188483 2
7.1840158 2.154144 -0.21486421 2
7.0025015 2.7262828 -0.21974047 5
2.8819737 1.8737432 0.55917704 34
7.4965172 -1.1817237 -0.22956963 1
6.9588571 2.8156438 -0.21866591 6
6.5035591 3.6160486 -0.21023853 8
7.4923482 -1.2067161 -0.22957571 1
7.1457725 2.2721586 -0.21492667 3
7.5015812 0.64460182 -0.21738739 2
6.9704542 2.7932687 -0.21902891 4
7.1197495 2.3427112 -0.21458741 3
7.4697661 0.91773003 -0.21706147 4
7.0985446 2.4149485 -0.21538539 2
6.9025345 2.9542086 -0.21952052 6
6.7033887 3.2727885 -0.21182568 3
2.8276734 1.8743712 0.56748736 33
7.4906554 0.7179687 -0.21664281 2
7.4078693 1.312093 -0.21716674 2
7.2551866 1.9424926 -0.21627457 3
6.9426413 2.8633816 -0.21945567 6
7.5386624 -0.22892594 -0.21960099 1
6.4892087 3.6365581 -0.20987995 9
6.5427938 3.5522292 -0.21055718 5
6.4378343 3.7221277 -0.20996232 3
7.5357394 0.09800142 -0.21846743 2
7.0682306 2.5374665 -0.21810694 4
6.9489875 2.8387492 -0.21868189 6
7.5400581 0.29816613 -0.22037287 2
2.9011889 1.8740985 0.55615425 33
7.4398084 1.1137948 -0.21673079 4
7.0325112 2.6570368 -0.22007354 6
6.6728249 3.3400199 -0.21263845 3
7.5408616 -0.27810121 -0.22035976 1
7.534801 -0.15209596 -0.21846373 2
7.5155663 0.52096659 -0.21812613 2
7.1764536 2.1780393 -0.21487661 3
7.3835669 1.4852978 -0.21911652 4
7.4235644 1.2128831 -0.21675833 3
7.4397545 1.1392115 -0.21749468 5
7.5288243 0.37068215 -0.21886547 3
7.0561085 2.5583818 -0.21736307 5
6.9326067 2.8864269 -0.21947189 6
7.2288098 2.0131984 -0.2151726 3
7.5173407 0.49590078 -0.2181228 1
2.8659487 1.8756135 0.56144154 34
7.5045919 -1.1316996 -0.22955807 1
7.5005984 -1.1567171 -0.22956379 1
7.0882254 2.4378774 -0.21502049 2
7.3653502 1.5327991 -0.21761961 5
7.5038462 0.59564066 -0.21700127 2
7.2723684 1.8951658 -0.21700986 3
7.5440426 -0.17746988 -0.22035678 1
7.5420499 0.24534395 -0.2203687 1
7.3568506 1.6068599 -0.21916099 2
6.6844449 3.3178785 -0.21261974 4
7.4998741 0.61924243 -0.21662624 2
6.5997691 3.4710629 -0.21237428 2
6.6186752 3.4244246 -0.21119876 2
6.4609451 3.6763422 -0.20916195 7
7.5261798 -0.076587982 -0.21657069 1
7.4604344 1.043246 -0.21860512 4
7.4789782 0.79117918 -0.21589942 2
7.2819552 1.8444717 -0.21623059 3
2.8420713 1.8715261 0.56560189 30
7.5465927 -0.32875714 -0.22187622 1
7.078887 2.5146322 -0.21847124 2
7.5300751 0.34556749 -0.21886308 3
7.4816971 0.76623601 -0.21589465 2
7.4036183 1.3867414 -0.21908303 3
6.4737401 3.6549385 -0.20914145 9
7.5376148 -0.10437123 -0.21884198 2
7.5412655 0.12198046 -0.21960421 2
6.5753832 3.5147133 -0.21241339 3
6.6971569 3.2977066 -0.21298094 3
7.3142128 1.7750106 -0.21884985 3
7.5441647 0.17237923 -0.22036381 2
6.6409583 3.4080694 -0.21345313 2
7.4474106 1.0641716 -0.21671779 3
6.6528153 3.3860385 -0.21343406 3
6.45751 3.70487 -0.21145757 4
7.209662 2.0571864 -0.21405871 2
7.3095608 1.8010708 -0.21923919 3
7.5084991 -1.106665 -0.22955246 1
7.5232511 -1.006405 -0.22953124 1
7.5160499 -1.0565624 -0.22954161 1
7.5123181 -1.0816238 -0.22954698 1
7.5301013 -0.95619839 -0.22952159 1
7.5333958 -0.93107593 -0.22951694 1
7.4713306 0.84080321 -0.21553083 2
7.2716818 1.8676869 -0.21548386 3
7.5028911 0.6939311 -0.21853133 2
6.5206103 3.5985332 -0.21135624 7
7.3203659 1.75064 -0.2188396 3
7.544188 -0.37783605 -0.22187896 1
6.5517387 3.5286019 -0.20977946 3
7.1725488 2.2031095 -0.21564646 3
7.3821793 1.510717 -0.21988256 4
6.9869308 2.7742746 -0.22052915 4
7.5413003 -0.42941275 -0.22188242 1
7.4355016 1.1894315 -0.21826561 4
7.5312424 0.27264452 -0.21847816 2
7.1906433 2.1063666 -0.21332641 2
7.5226021 -0.028877845 -0.21581407 2
7.1208019 2.3696144 -0.2164944 2
7.402586 1.4121776 -0.21984847 4
7.1223097 2.3171127 -0.21343799 2
7.183991 2.1278951 -0.21333726 2
7.5262194 0.072771825 -0.21657367 2
7.3929887 1.3590912 -0.21604617 3
7.2320213 1.9880334 -0.21440382 3
7.5226588 -0.0037904074 -0.21581455 3
7.5273895 -0.12933718 -0.21694942 2
7.3437524 1.6799928 -0.21994634 3
7.4743066 0.94365609 -0.21858127 6
6.5773273 3.4871631 -0.21012004 3
7.1452436 2.2984278 -0.21645458 3
7.1592588 2.2502139 -0.21604986 3
7.539566 -0.88205767 -0.22950824 1
7.3487306 1.5805432 -0.21650179 3
7.3714614 1.5598741 -0.21990032 4
7.2148666 2.0875559 -0.21672244 3
7.5366011 -0.9059453 -0.22951241 1
7.5474448 0.19764824 -0.22112234 2
7.4046779 1.2859894 -0.21564467 2
2.9108961 1.867429 0.55540639 34
7.5496402 -0.25322059 -0.221873 1
7.4572406 1.0910708 -0.21937437 4
6.8988142 2.9815087 -0.22105344 4
2.9507155 1.8692451 0.54898137 40
7.5215425 0.57186115 -0.22002597 2
7.3771706 1.4582981 -0.21683629 5
6.5195246 3.5690708 -0.20830448 5
2.929827 1.8680478 0.55238312 34
7.5392528 0.39643273 -0.22113927 2
7.1161919 2.3945951 -0.21726532 2
7.5297709 -0.35190043 -0.21884914 1
7.075985 2.4600875 -0.21427698 2
7.4502115 0.98979765 -0.21518548 3
7.3315516 1.7300985 -0.21996661 3
7.520237 -0.45207238 -0.21809883 1
7.049057 2.6365144 -0.22157355 6
7.5151086 -0.52728677 -0.21810527 2
7.2370296 1.9634113 -0.21401389 3
7.4625034 0.86499685 -0.21440037 2
7.5205379 0.047629029 -0.21543725 2
7.4828253 0.89278901 -0.21894844 2
7.475029 0.96785444 -0.21934386 4
7.5426011 -0.85690588 -0.22950394 1
7.4917817 0.81789613 -0.21893282 2
6.9099159 2.9038854 -0.21683653 7
7.4465356 1.0158672 -0.2151918 4
7.5276399 -0.20344478 -0.2173291 1
7.3394556 1.7061322 -0.2203352 4
7.0618014 2.5874641 -0.2204078 7
7.2751732 1.9219915 -0.21891411 3
7.5186973 0.022539111 -0.21505804 3
6.8883677 3.0044005 -0.22107036 3
7.3285499 1.6505555 -0.21577163 3
7.2823343 1.8199306 -0.21508451 3
7.501955 0.54513615 -0.2158583 2
6.647254 3.354753 -0.20962591 3
7.4186826 1.3396904 -0.22020324 3
7.5403075 0.44570598 -0.22190197 2
7.5129881 -0.5019486 -0.21734591 2
7.5072708 0.4700551 -0.2158484 1
7.0067892 2.6738274 -0.21667965 6
